0.080387 0.116477 0.885207
0.052309 -0.120832 0.396583
0.073119 -0.036251 0.683378
-0.165467 0.237869 1.117219
-0.107853 0.049853 0.696933
0.062413 0.229684 1.048787
-0.079293 -0.128280 0.618857
0.026373 0.126968 0.922489
0.044748 0.177977 0.952271
-0.016680 -0.145483 0.543236
0.107830 -0.026085 0.582649
0.142110 -0.054414 0.434158
0.099521 -0.096339 0.393021
0.512585 -0.269674 1.254541
0.490571 -0.242558 1.208473
-0.005759 -0.008314 -0.039499
0.026072 -0.021166 0.062903
0.118343 0.083868 0.615695
0.081087 0.069010 -0.179374
0.053009 -0.028099 0.129366
0.081310 0.070206 -0.185178
0.084191 0.064156 0.460648
0.118325 0.083068 0.615551
0.471338 -0.355478 1.141712
0.131625 0.064668 0.654043
0.035421 0.000309 0.108569
0.474355 -0.360000 1.145226
0.131988 0.065262 0.652122
0.177448 0.108752 0.688857
0.182840 -0.003972 0.647572
-0.004232 0.150921 0.507726
-0.007025 -0.010401 -0.046947
0.187843 0.027424 0.638094
-0.003352 0.147556 0.503742
0.049407 0.132007 0.545550
0.103043 -0.077117 0.225154
0.007908 0.129291 0.428584
0.028733 0.306495 -0.838467
0.342728 -0.137227 0.939727
0.019395 0.085544 0.159901
0.053351 0.056313 0.327868
0.029956 0.031141 0.171032
0.177948 -0.000764 0.633217
0.055443 0.056563 0.330667
0.343315 -0.137706 0.940179
0.187136 0.652582 -1.365397
0.161552 0.287758 -0.683191
-14.064666 19.587322 -59.780006
0.413653 -0.336706 1.258402
-0.009238 0.152694 0.428184
0.369142 -0.148717 0.986529
0.552818 -1.103870 2.894504
0.067731 0.007751 0.515712
0.107038 0.049580 0.159266
0.243747 -0.018402 0.780616
0.342487 -0.137490 0.941347
0.005563 0.008028 0.500271
0.031475 0.138115 0.485752
0.341807 -0.136909 0.942532
0.118142 0.185371 -0.091239
0.588563 0.786454 -2.814681
0.580747 -1.090302 2.815098
0.384728 -0.247273 1.040942
0.163049 0.018436 0.432637
0.031570 0.089737 0.535750
0.100239 0.171494 0.565826
0.066568 -0.004157 0.554126
0.149238 -0.074876 0.364337
0.075250 0.067036 -0.042909
0.259705 0.871477 -1.971787
0.380345 -0.348724 1.115102
0.094046 0.017667 0.381013
0.041145 -0.031047 0.010833
0.300493 -0.278277 1.210776
0.012551 0.080049 0.257347
0.343147 -0.137498 0.939392
-3.700233 6.376029 -19.133228
0.541128 -0.398715 1.520948
0.232448 -0.299445 1.050316
0.279157 -0.126636 1.149194
0.405127 -0.291861 1.158949
0.423182 -0.308508 1.176558
0.017830 0.115497 0.393408
0.350639 -0.139576 0.941832
0.173608 0.072788 0.655263
0.184514 -0.104714 0.743671
0.407670 -0.316489 1.175489
0.060746 0.016077 0.510193
0.025945 -0.007904 -0.105195
0.074090 -0.035445 0.653215
0.106524 0.060444 0.211988
0.196402 0.073044 0.633914
0.217287 -0.073359 0.829567
0.078283 0.009079 0.293107
0.053839 -0.043602 0.729055
-0.009101 0.024298 0.124989
0.329794 0.486878 -1.461997
-2.220946 1.206545 -11.807063
0.143818 -0.107891 0.344453
0.152582 -0.082298 0.375569
0.154468 -0.053067 0.416549
0.264269 0.025877 0.577528
0.145399 0.154140 0.798490
0.134714 -0.009790 0.474678
0.014993 0.047549 -0.140771
0.005169 -0.001761 0.388333
0.160224 -0.041428 0.327053
0.107154 0.198663 0.853798
0.105138 0.004687 0.130166
0.019587 -0.006354 0.030338
0.091680 0.176960 0.879688
0.109047 0.086538 0.713050
-0.440516 0.196914 2.488225
0.019093 -0.006601 0.030492
-0.072924 -0.029859 0.291318
0.057162 0.209663 0.974310
-0.016369 -0.106956 0.353855
-0.034866 0.299657 1.190629
0.033095 0.096514 0.360944
-0.063506 0.024328 0.511262
0.067410 -0.024585 0.027945
0.005820 -0.005614 0.379139
0.178440 0.114370 0.723767
0.141199 0.148788 0.810206
0.127743 -0.079131 0.426767
0.053518 0.202059 0.992870
0.059071 0.205110 0.953034
0.819288 0.173351 -2.533504
-0.067817 -0.031963 0.238130
0.106344 0.098711 0.737085
0.061336 0.184521 0.917060
-0.050445 0.024852 -0.230223
0.035591 -0.040076 0.162943
0.136683 -0.011666 0.470352
-0.010952 -0.037812 0.147524
-0.627765 0.760078 3.553197
0.020747 -0.008710 0.045383
0.097825 0.045517 0.624196
0.013642 0.221118 0.923395
0.035546 -0.109487 0.400451
0.456143 0.146166 -0.802572
0.056080 0.213982 0.973626
-0.265628 0.685374 3.268239
0.071955 -0.034456 0.210426
0.373419 0.136335 -0.830567
0.165208 0.096130 -0.008324
0.097390 0.052408 0.639800
0.059747 -0.039023 0.325926
0.031092 -0.050749 0.161639
0.007533 0.017324 0.262364
0.057429 0.211161 0.962615
0.119853 -0.006999 0.675178
0.002886 0.329132 1.251696
0.055667 0.210254 0.964414
0.074302 -0.034801 0.209983
0.135475 0.167668 0.805518
0.235350 0.039929 0.629679
0.064938 -0.053252 0.197761
0.015502 0.192567 0.847593
0.061997 -0.045478 0.246270
0.085062 -0.109225 0.374876
0.052173 0.173110 0.904926
0.058807 0.213188 0.965288
0.236955 0.040270 0.629801
0.055603 -0.062448 0.186331
0.062797 -0.045547 0.983779
-0.271796 -0.082330 1.776701
0.099697 0.003702 0.699535
0.042616 -0.061318 0.211385
0.030542 -0.041059 0.159752
0.630182 -0.430057 -2.838553
0.010774 -0.078799 0.231161
0.031197 -0.040855 0.165059
0.009786 0.192975 0.838708
0.054111 -0.036615 0.299225
0.065455 -0.040226 0.236870
0.151695 -0.133483 -0.503602
0.026510 0.207216 1.110404
0.120907 -0.092019 0.363643
0.061581 -0.038671 0.332677
-0.134439 0.038423 0.628512
-0.195087 0.110740 -0.488592
-0.093274 0.102346 0.789948
0.010405 -0.012222 -0.053254
0.027195 0.125236 0.831889
0.052028 0.091001 0.492235
1.875701 -1.115152 4.261174
-0.195414 0.113982 -0.495711
0.027995 0.126529 0.830243
-0.196336 0.110656 -0.490654
-0.137661 0.019627 0.564693
0.262867 0.196594 1.679445
1.920555 -1.156875 4.374704
0.175132 0.063665 0.969402
1.294004 -0.507244 2.959013
0.149361 0.165642 1.107756
0.028330 0.126299 0.830182
-0.006561 0.017961 0.076976
0.037743 0.042826 0.241296
0.468197 0.217082 2.696313
-0.048620 0.027856 -0.144336
-0.138660 -0.118062 0.443805
-0.004397 0.104460 0.411579
0.000639 0.001946 0.008676
0.424872 0.207457 2.501532
-0.022593 -0.010479 -0.123328
0.047994 -0.037010 0.124932
-0.526519 0.040940 -1.949289
0.428781 0.206988 2.518595
-0.005812 -0.003411 -0.003795
0.002568 0.009512 0.044538
0.035317 0.124493 0.643951
0.421339 0.217704 2.514985
-0.005523 -0.002341 -0.032016
0.028942 -0.025579 0.033555
-0.004002 -0.001588 -0.025223
0.153642 0.164910 1.119545
0.043992 0.179581 0.917301
0.023132 0.112015 0.529106
0.911285 -0.071947 3.121782
0.044933 0.049534 0.619308
0.005967 0.021727 0.098112
-0.026406 -0.084083 0.336129
0.010017 -0.057634 0.162969
-0.036618 -0.047901 0.179352
-0.006273 -0.049358 0.191332
0.048977 -0.039345 0.130698
0.007388 0.004752 0.040389
-0.120977 0.009386 0.523330
0.041907 -0.035248 0.111212
0.049391 -0.033118 0.119679
-0.265160 0.096290 -0.698788
1.314689 -0.879589 3.970251
-0.020091 -0.104749 0.409333
-0.006302 0.090878 0.347193
-0.000414 0.010711 0.080802
0.940991 -0.064101 3.272520
0.028043 -0.004155 0.066252
-0.005563 0.087225 0.318568
0.166106 0.116523 1.287540
0.009726 -0.009309 0.028824
-0.005128 0.087302 0.315009
-0.006623 0.091059 0.345135
0.119008 0.159757 0.995491
-0.098971 -0.053137 0.481903
-0.079420 0.085826 0.598214
0.023676 0.133194 0.784465
0.182389 0.223336 1.230167
-0.004887 0.009649 0.004460
0.157559 -0.178152 1.262047
0.556202 -0.402028 2.006490
-0.041444 0.007482 -0.192137
-0.034939 0.015964 0.423093
-0.084249 0.105856 0.811271
-0.044351 0.014924 -0.264112
0.015872 -0.012537 0.023736
-0.032305 0.015285 0.432610
0.039860 -0.021101 0.100875
-0.034788 0.022832 -0.190343
-1.178844 0.599225 -2.972055
0.089862 -0.078736 0.960795
-1.327260 2.999044 13.498217
2.338211 -2.017608 6.033803
-1.218262 3.176293 13.590061
-1.159364 3.000408 13.175707
2.304645 -2.046263 6.015373
0.407328 -0.451081 1.803402
-1.466397 3.268118 14.560321
-48.160427 3.655619 -169.581070
-38.271210 2.861133 -132.491699
-26.512798 0.389681 -92.552032
1.311868 5.765268 42.095585
2.076924 -0.213425 8.941878
1.528992 6.770488 49.238388
-41.448265 0.327234 -145.480148
-40.903339 0.433880 -144.197830
-46.315151 -22.157499 -270.381958
0.887029 0.709866 8.146313
-2.948209 -0.006739 -8.644184
255.887512 -74.315834 649.251953
-27.239855 0.403438 -95.063026
99.244804 108.734619 618.702515
20.672140 -7.950605 54.067127
-42.100414 -19.762522 -245.220306
5.407977 16.268547 82.864220
1.988380 -0.231446 8.561290
33.675381 -11.187634 86.079651
5.241492 15.593533 78.433289
37.500210 40.338161 232.564941
0.581002 0.213253 4.079070
0.972252 0.713917 7.806947
-0.333836 4.867195 18.954004
1.056339 1.151766 8.354161
-13.112489 -1.663986 42.953739
-1.141281 -1.508037 5.464036
-0.011906 5.726463 22.307568
1.445669 7.891779 46.742443
4.919448 -3.841717 14.757368
-0.463080 4.968050 18.603746
-15.351152 -10.811220 -79.848862
1.826596 -2.189981 6.163757
-0.402771 5.212716 19.440491
0.996366 -1.879941 5.354285
-0.910513 -0.152897 -3.671283
-0.107026 5.231235 20.369043
2.277941 8.209567 36.964870
0.680909 -0.748034 2.755239
0.727715 0.216950 4.700602
0.961824 -2.288377 7.991928
-23.386229 -11.783564 -130.965836
-0.449019 -0.460244 2.208090
-0.214447 0.480022 6.421080
1.642791 -2.701411 7.673149
4.859564 -3.810050 14.535112
1.094701 -2.376116 8.301513
-2.362584 0.224082 13.261093
-0.278550 4.805252 18.878410
2.843630 9.342952 49.872715
-0.464166 -2.381844 8.249224
-0.304290 -1.923528 7.732209
1.277147 -1.994427 5.158728
4.344573 -3.593561 13.303077
-0.302003 -1.600075 6.359122
-30.277033 -31.956936 -186.062164
-2.685114 -2.190344 11.610220
-2.305542 -1.976392 9.587918
-0.558640 -0.270966 -3.296291
-2.699983 -1.778649 11.169228
-0.293449 -1.942178 7.789426
0.306758 -0.754475 -3.435601
-3.217336 1.606398 10.732108
-2.111716 1.133680 7.248465
-13.150785 7.514421 -43.796429
6.002171 -4.373503 17.556095
-1.143693 0.252429 7.396437
-0.331935 -0.205674 -5.368094
1.431453 -2.529798 7.098729
1.013728 1.015568 8.400147
0.172832 -1.850844 9.829677
-1.856669 0.992367 6.875131
-0.483829 -1.714016 7.589916
-1.117777 0.352738 -7.858437
1.130894 -2.404882 9.014686
-4.845611 3.677076 -21.717785
-0.002584 -0.261526 4.215844
0.899332 -2.159914 7.496946
0.288216 -0.748330 2.614818
-0.120437 -0.670406 1.923337
0.000813 -0.252751 4.274092
-1.124854 0.239146 -5.337433
-1.002000 2.603720 11.335727
-1.002622 2.626894 11.479001
-1.025539 2.631363 11.534468
4.333035 -3.813425 11.412667
3.095222 -4.183077 11.895819
4.275321 -3.862557 11.366019
-1.009274 2.631492 11.354200
4.299489 -2.303680 10.649686
2.730675 -0.036064 9.573133
4.341891 -3.807376 11.430994
1.403984 -4.029571 12.862664
4.338620 -2.345531 10.743041
4.244546 -3.833404 11.306066
4.306008 -2.135227 10.665769
2.330486 0.410862 9.291730
3.685184 -3.065031 11.225196
-2.890632 1.623550 13.339716
4.295851 -3.868176 11.421401
3.035869 -4.179818 11.952763
4.280712 -3.863296 11.408840
-1.161574 2.649994 11.935938
4.316167 -3.814765 11.452892
0.633032 1.958444 9.851323
4.293763 -2.438693 10.768065
-1.155594 2.612350 11.729210
-1.106230 2.489827 11.108452
4.289321 -3.794368 11.432172
2.776019 -0.285753 9.752645
2.734379 -0.221159 9.590965
0.311802 1.393620 10.176647
2.709268 -0.046755 9.471094
3.924103 -1.137026 9.985262
1.705480 -0.580251 10.405558
-1.006296 2.618231 11.192040
0.675640 2.042384 10.277633
2.761902 -0.200286 9.604031
2.102768 -4.699437 12.835882
3.638065 -2.991685 11.069036
3.699076 -2.903727 11.073940
1.958044 -1.278601 10.676059
4.362482 -2.264843 10.767414
0.666016 1.994279 9.917085
-1.967939 0.197704 11.567305
3.633029 -2.952318 11.024025
2.871050 -1.784426 10.443105
3.871989 -1.079738 9.802706
2.861189 -1.778138 10.405066
1.441986 -4.098353 12.997129
1.564390 1.687318 9.689373
-1.130457 2.615942 11.813009
1.374551 -3.974618 12.682308
0.299430 1.405217 10.230629
1.331169 1.923584 9.136730
1.574854 -3.315901 12.390766
-2.783942 1.637057 12.981148
1.685867 1.482308 9.532180
1.499864 -3.120561 11.777151
3.898791 -1.545665 10.382622
1.485462 -3.078751 11.612987
1.695936 -0.590611 10.477443
1.641555 0.798495 9.698673
3.655329 -2.852125 10.945664
1.394382 -4.032109 12.872268
3.745289 -3.096043 11.381652
1.759044 0.850943 9.474451
2.207850 -4.867560 12.826824
2.074346 -4.662013 12.695531
2.729176 0.025472 9.566206
1.353316 -3.340457 11.739352
3.796480 -2.938473 11.194348
3.850632 -1.117835 9.795440
3.807121 -0.983132 9.590398
3.746900 -2.744873 11.040027
0.517030 1.926257 10.114379
1.612585 0.803655 9.541826
-3.020613 1.682293 12.976977
0.593273 2.115153 9.844187
3.741716 -1.498478 10.319190
3.805497 -1.479975 10.070635
2.852910 -0.020561 10.107306
0.297160 1.438125 10.191769
-3.727495 1.984267 12.734495
-1.019625 -1.263844 11.288029
0.312808 1.700124 10.096604
2.214725 -4.810425 12.865880
2.522750 -4.213555 12.110554
2.775336 -0.242109 9.749152
-0.191577 2.772542 10.966036
2.434284 0.398703 9.616042
0.561233 1.877866 9.914530
1.177804 0.700282 9.971792
3.938857 -1.569127 10.520679
1.156337 0.696968 10.276513
0.289155 1.449259 10.304975
1.503387 1.647678 9.333961
-0.110241 2.765940 10.781608
0.621782 1.912885 9.733611
3.884981 -1.295628 9.988688
0.618635 2.321056 10.410439
1.597823 -3.449780 12.039369
0.531420 1.918104 9.998237
1.563794 -3.336588 12.497186
2.762537 -0.232135 9.577929
2.352282 0.466328 9.466607
1.760374 0.858125 9.639921
-1.971173 0.277122 12.768335
1.733902 0.839776 9.657313
-3.054612 -3.895379 14.544068
3.115572 -4.207998 11.897841
3.018976 -4.195270 11.971945
1.407090 -3.480141 12.163510
-2.763567 -2.355209 11.209110
0.680325 2.018568 10.015438
2.340427 0.476204 9.304577
2.672531 0.015685 9.631670
3.706395 -2.826061 11.150002
1.425316 -3.552083 12.339584
-0.049407 2.747842 10.689544
1.830190 1.381100 9.522535
1.638843 -3.889450 12.657081
3.941139 -3.085165 11.591036
-2.012672 0.451599 12.878275
1.518904 -3.133031 11.847297
-3.890997 2.073646 13.419031
0.467681 2.544168 10.428551
3.819500 -2.726344 11.078829
-1.984544 0.319492 12.740143
1.668785 0.792388 9.736347
-3.282798 1.912199 13.503407
-3.307677 -4.133654 15.673827
1.962918 -1.245587 10.686568
2.762203 -0.042270 9.655604
0.514173 1.890644 10.091006
-2.094729 0.195758 12.344872
3.844436 -1.552721 10.580393
1.085149 0.684324 9.931624
1.564056 1.686607 9.750624
3.650476 -2.753529 10.911388
2.006458 -1.292947 10.742954
-3.305475 -4.404891 15.782051
1.819285 1.394142 9.541986
-2.996853 -3.602793 13.920769
1.741311 1.343102 9.187600
-4.206042 2.056480 13.860455
1.410329 -3.456722 12.067169
-3.213650 -3.992583 15.204329
-1.939917 0.280928 12.555156
0.594272 2.112131 9.684309
-1.480244 -4.888634 14.946982
-0.366025 2.958318 10.950774
0.522355 1.884805 9.845777
-1.278564 -2.404473 11.318285
1.773182 1.541882 9.843253
-0.079582 2.735489 10.744784
-0.314780 3.011405 11.203907
1.515138 1.666691 9.450567
-3.779470 2.035437 13.097588
1.756421 1.254357 9.183527
-1.239417 -2.292264 10.847484
-1.295352 -2.186484 10.678479
2.868868 -1.802543 10.492393
-0.215574 2.767912 10.768972
1.656359 0.813106 9.789692
1.916488 -3.343129 12.418028
1.797217 0.884032 9.836091
-1.956293 0.370344 12.523797
1.582144 1.720208 9.841514
-1.302480 -2.207792 10.819084
-0.209104 2.922062 11.152427
-0.213328 2.844011 10.744573
-2.448563 -2.235216 11.442289
-0.205183 2.792093 10.996291
1.510542 1.577526 9.446964
0.609463 2.265015 10.337853
-3.561171 1.781683 11.859898
-0.273258 2.919167 11.133539
-0.271326 2.832001 10.612916
1.249747 1.961966 9.234868
-2.841757 -2.993980 13.455606
1.602273 0.785313 9.510184
-2.509035 -2.441352 11.774482
1.747368 0.958894 9.981890
0.354670 2.661344 10.506043
3.697909 -1.483992 10.155284
1.839192 0.882551 10.161759
-2.155152 -1.771806 9.554583
1.779738 -0.477174 10.939111
2.983210 -1.735250 10.466068
-2.359217 -1.499464 11.961683
1.765242 -3.067980 11.483816
2.253467 -2.061480 12.075580
0.498651 1.876087 10.012600
2.495797 -4.204599 12.093029
0.607079 -4.498481 13.576187
0.625539 -4.370104 13.261947
-1.196517 -2.304460 10.921564
2.897698 -4.252115 11.984169
1.739788 1.144699 9.319225
-1.257246 -2.407352 11.351250
-3.436911 1.731764 11.417862
-2.471921 -2.548744 11.942730
-5.532081 -11.860640 33.017570
-2.623455 -2.774666 12.579891
-2.431203 -2.478018 11.699953
1.838414 1.286275 9.683172
-2.707194 -1.745169 11.000423
-0.560983 -5.805011 15.897895
-2.398736 0.658412 13.354577
0.620955 -4.811091 14.072756
2.841519 -1.728532 10.191206
0.287470 0.160584 1.838462
2.686220 -4.727936 15.217356
3.967251 -1.657167 14.919752
2.176967 -6.992092 24.156502
-2.991308 -2.687298 22.972870
5.263061 -1.286339 14.612612
3.074385 -4.587942 14.336079
0.663628 -7.696156 26.459221
2.282033 -5.096026 19.936890
-2.674222 -30.919466 85.628822
0.508958 -9.195758 29.876768
4.017421 -1.683559 15.076303
2.704517 -4.683223 15.084753
-7.098972 -7.536007 49.550320
-2.599296 -34.062103 94.337807
5.362850 -1.425422 14.711208
1.720927 -5.783681 22.526472
0.473040 -8.686226 28.268938
2.655698 -4.883512 16.005762
-1.110384 -27.190157 75.300636
5.217631 -1.375785 14.308961
0.537813 -9.359695 30.453281
5.406300 -1.388972 14.701986
4.358202 -2.886825 13.619843
2.291124 -5.041577 20.240210
3.213405 -5.684721 15.425458
0.796518 -12.823887 38.627388
-4.153140 -3.743685 30.842758
5.213884 6.016727 -20.440666
5.325855 6.190309 -20.950268
1.945590 -5.210092 20.604713
5.096915 -1.358591 14.700730
5.249144 -1.377139 14.412816
5.128429 -1.286356 14.264894
13.264977 8.706539 61.823769
2.163834 -5.737134 23.033764
0.480385 -9.935763 31.725212
2.572277 -4.729771 15.503304
4.080479 -3.342531 11.638866
3.733159 -2.374316 21.090818
5.379601 0.121082 31.414122
5.261930 -1.323917 14.620773
4.086211 -3.473870 11.695046
5.504571 6.558774 -22.917027
2.302196 -7.326343 25.185612
4.104752 -3.343201 11.671526
5.274448 0.119263 31.007664
3.988084 -1.654090 14.956597
5.428549 -1.319073 15.095203
-3.758261 1.370868 22.201738
-1.651609 -5.562256 -30.459158
5.134745 6.009004 -20.452183
-1.137460 -26.807390 74.239639
29.515308 -48.874241 154.300690
10.791810 7.112027 52.330830
4.941052 5.845062 -20.256247
2.112823 -5.606106 22.302361
9.495937 6.131469 45.269077
10.716962 56.447014 -147.915314
-0.637250 -0.114013 -2.877205
1.899997 -1.481574 5.085300
4.098867 -1.579590 15.019337
1.346558 -10.242590 31.672771
6.397221 0.873708 21.694464
3.740266 -3.151857 10.637715
-6.230952 -9.231215 -35.930462
11.805768 7.622810 54.485504
7.733493 3.139969 29.478935
4.116854 -1.576841 14.993477
2.989900 -3.136113 18.607925
-5.598309 -8.475997 -32.720116
2.408111 -6.249570 17.680479
-12.038260 -13.433353 -63.429893
5.435435 -0.032024 32.552639
2.658903 -4.656195 14.934922
18.221064 13.030500 90.063515
2.691319 -6.767118 19.094824
1.934474 -1.553950 5.242906
-18.225201 -20.251514 -96.101891
-1.083818 -0.666841 -3.577101
5.221797 -2.273188 13.311698
4.094291 -3.467978 11.654154
4.573381 -2.828881 14.152899
-20.153648 -11.856818 89.879333
2.630985 -6.801735 19.440786
2.545636 -6.339507 17.667826
-1.001415 -1.775099 -6.517642
12.722316 8.490124 60.294937
6.358529 1.225267 21.737108
6.909724 1.466343 23.674877
5.631856 0.151408 32.948860
-9.078990 -10.776467 -48.662342
4.360510 -2.912354 13.791099
0.725949 0.819239 -4.596454
6.442525 0.902554 21.550121
3.335992 -4.387872 13.953088
3.354693 -4.575641 14.263337
-3.518912 -3.333186 25.549850
0.763290 -12.545712 37.790653
7.798124 2.500539 27.840622
0.870918 -15.030013 45.129051
3.297091 -5.033585 15.755922
4.674710 -2.877097 14.529057
3.110852 -3.214716 19.244968
2.111125 -6.881646 23.810457
7.115514 1.372622 24.062965
6.663212 0.884520 22.305992
-0.002664 0.930325 -6.804035
0.925676 -1.064824 3.266903
0.395258 -0.608307 1.898251
6.071113 0.742833 20.587387
15.051482 10.519578 74.713165
-72.210754 -56.770771 324.022705
6.881057 1.559035 23.414011
0.921658 -3.013089 -13.364770
-40.838654 -14.842812 204.441803
17.386360 12.640141 86.890968
3.954493 -1.443718 21.874029
4.214986 -2.843848 13.129691
-9.194903 -11.003042 -49.542027
6.635058 1.291632 22.541815
0.710974 -2.843019 -12.164999
-86.413826 -71.804298 -408.969086
34.599281 -11.914461 -189.852036
3.841729 -2.915105 -22.709862
-0.135460 1.339658 10.876272
0.812008 -2.914254 -12.745750
-0.601782 -0.690597 2.265888
-7.589515 -7.828124 52.453243
-0.166770 -0.390877 -1.672604
-0.490185 3.661967 -12.734122
1067.521851 873.802734 5086.314453
-1.882281 -5.053958 -20.791338
0.362717 0.463373 -3.635694
-12.718732 -14.156537 -66.664093
-3.009713 6.814658 -21.225134
3.006351 -5.088524 22.345598
-0.493414 -0.372510 -2.619918
-32.080254 -11.109363 155.057709
-13.528450 -4.890348 68.149109
0.598268 -0.792212 -3.027977
-4.518338 11.930641 -47.189587
-0.855493 -10.806367 29.930237
-36.132996 -33.105179 282.786072
-2.791055 4.919447 -15.833088
-9.035697 2.254460 -25.039515
-8.099480 2.119798 -22.214327
-0.886353 -12.162694 33.684998
-3.244419 2.703706 -9.148865
-6.787870 2.833716 -25.512226
0.819426 0.470444 3.309295
-1.352267 0.489908 7.708295
0.705603 0.976918 3.782969
0.397022 -2.172758 6.738764
-9.679609 2.541135 -26.459995
-9.356857 2.346095 -25.951876
0.666725 0.114010 3.121094
-4.598881 12.144493 -48.316494
-3.484777 11.512019 -44.846088
-0.285771 0.120714 1.948827
-0.510548 -12.418272 34.392765
-2.697342 4.871504 -15.723558
-3.454086 2.897655 -9.768791
-2.109478 1.649454 -5.623579
-8.527049 2.275787 -24.625187
-2.084377 1.561390 -5.450522
-6.775359 2.785201 -25.215969
17.723389 -41.139580 110.724442
0.827504 1.265249 4.883904
-6.935524 2.903246 -26.001572
0.693446 0.972569 3.873478
-4.738914 52.938183 -182.002472
-2.797917 5.134119 -16.825300
-2.044213 1.516492 -5.354319
-1.084799 1.157228 -3.638535
0.935568 -2.339314 7.346149
0.223043 0.147745 1.699299
-3.117307 4.701440 -14.713772
1.167027 -0.450964 4.584021
-204.492462 354.362671 -1096.456909
-2.729859 4.755106 -15.310968
-0.594347 -12.989939 35.976856
-0.553759 -0.338203 2.934803
-5.210403 3.454547 -15.998188
-0.217723 -0.635814 6.098485
-0.014769 0.228429 1.621390
0.968613 -2.531883 7.813248
0.669262 -68.916222 179.549347
-0.258524 -0.480929 3.704756
-5.463017 14.606982 -58.631634
-7.075366 2.708748 -25.751801
0.577073 1.195276 4.555988
1.461466 0.544978 4.686336
-0.140546 0.178072 2.156829
-0.820794 -2.014107 6.698401
-0.136995 0.177485 2.164636
0.226338 -2.146183 5.958951
-1.311536 -1.590080 5.491728
1.105308 1.019650 4.667181
-0.110174 -1.627957 6.977139
-1.346536 -1.611087 5.575757
-0.182194 -0.622328 4.177523
2.205356 1.503724 10.793438
-7.463225 2.852281 -27.082767
0.060396 0.210379 1.682956
0.298531 0.224177 1.878294
0.310094 0.224162 1.916970
-0.018375 0.367012 1.386724
0.170912 0.822594 3.352560
-23.148104 175.033340 -541.307861
-0.075553 -0.940387 6.390341
-3.642016 2.820281 -10.194433
0.237639 0.191915 1.736354
-0.015928 0.368133 1.387799
0.002404 0.285660 1.530203
0.980878 0.373106 3.400190
0.000979 2.194619 -6.090525
0.147517 1.020631 -3.303411
1.775934 -0.912847 8.062881
1.423617 -24.290699 73.173210
-1.239683 -1.498409 4.933314
3.524337 0.079764 20.410765
1.391662 -24.081636 72.543297
0.750894 -2.735349 9.809400
0.023437 0.053663 1.980213
-4.034302 9.150584 -35.799217
-0.019832 0.364009 1.400757
0.144759 0.573839 2.837209
-0.018433 0.362499 1.403224
3.377901 -0.028448 19.994371
-1.241583 -1.486053 4.928655
-0.257778 0.157037 2.039585
9.069182 -7.450077 34.751587
1.493368 -27.953623 83.935112
1.483385 1.088106 6.044983
0.369589 -1.232352 5.433493
0.420814 0.357903 2.530071
0.017714 -0.112360 3.054935
-8.182303 8.563161 -50.817944
0.729113 -0.277482 3.393302
0.124425 0.040490 2.236240
-2.840979 -2.954535 19.791821
-0.127943 0.424100 1.519316
0.446418 1.688296 -4.562232
-2.462778 -0.881461 12.304331
0.687410 0.575719 2.828333
-0.081702 -1.102337 3.053019
-0.098326 -1.108402 3.069810
-0.096426 -1.105702 3.062468
0.046583 -0.917295 2.934788
1.232661 -0.310889 3.436222
0.045489 -0.917017 2.940915
0.219784 -0.755217 2.941857
1.240391 -0.320961 3.414238
0.759841 -0.622136 2.166312
0.224230 -1.340237 3.784948
-0.049035 -1.093837 3.029409
0.887009 -0.368326 3.338505
0.368303 -0.037184 3.675553
0.674807 -0.564838 1.899229
0.280866 -0.751221 2.970868
0.135281 -0.695251 -3.037710
-0.422552 -1.034705 6.634773
0.770404 -0.628157 2.170676
0.067451 0.337887 7.172979
0.759347 -0.643198 2.164412
0.631969 -0.314959 -4.891760
-0.703399 -0.325346 -4.807857
56.030437 58.478756 229.918579
1.157492 -0.322007 3.356671
0.355621 -0.016945 3.725559
-0.086019 -1.110781 4.289615
-0.288645 -0.181095 -3.134084
0.526542 -0.776870 2.439199
0.442602 -0.613730 1.602661
10.441265 12.835649 -43.452091
26.597353 21.968142 87.676582
-1.028998 -0.303125 -6.912298
-2.048279 -1.739024 -9.663226
14.057880 7.309150 54.126678
3.928574 1.154776 11.809887
1.863508 1.206286 -9.833968
-0.786853 -0.258339 -5.315328
0.087157 -0.725095 2.659198
0.056020 -0.995766 2.999646
-0.581837 -0.542827 3.366666
-1.581686 -1.554270 -7.084575
0.625609 -0.208013 -3.701247
-0.799851 -0.257485 -5.452310
-0.149031 -0.436014 -2.347893
-1.746549 -1.643188 -7.866483
-0.538716 -1.305190 4.200607
1.568378 1.467033 -9.191497
0.274785 -0.740232 2.945291
-144.464218 -81.386284 -460.149261
2.482223 1.425207 -10.753096
-2.223336 -2.700346 -10.209206
0.329288 -2.744227 7.729497
5.359710 5.269539 -33.548111
-0.361314 -0.250265 -3.121130
-3.093266 -3.795841 13.135314
-0.190684 -0.716115 3.757658
0.928678 -0.356549 3.402038
-0.432488 -0.655367 2.112091
-0.494319 -1.169944 3.885781
9.905763 5.194403 37.475967
-0.464082 -1.262956 -5.257064
0.106105 -0.701453 2.766925
-0.045096 -0.362569 -2.974169
0.138155 -1.647732 4.368023
0.260488 -1.538449 4.804473
0.159862 -1.792569 6.271996
0.222696 -0.768619 2.330505
0.433330 -0.385230 -2.863877
-0.942585 -0.346543 4.767833
0.082088 -0.507747 1.639969
0.312929 -0.672849 -3.331005
-0.903883 -0.610297 4.862331
0.543135 -2.166722 -8.307804
-0.210838 -3.065023 -27.662268
0.126986 -0.591806 1.895258
-0.209119 -0.686797 3.510630
-0.140769 -0.391241 -2.496205
0.402336 -0.388918 -2.717735
3.301706 -10.018681 38.405811
0.286550 -0.832893 2.886296
0.531597 -0.428750 2.354209
0.094085 -0.697143 1.763360
1.550460 0.300547 5.225126
-0.427619 -1.264460 7.977938
1.702473 1.213883 -9.212242
0.213936 -0.896800 -3.222621
-0.368358 -0.247102 -3.163675
-0.325622 -0.270898 -2.993838
3.622400 3.531315 -20.268356
0.004675 -0.524131 2.569853
1.224236 0.423240 -5.818897
-0.282412 0.104061 -2.753891
0.099186 0.773718 -5.970004
0.147037 -2.103536 -8.109868
-1.209650 -1.213694 -6.829450
-0.512571 -2.599531 6.744906
-0.301308 -0.043482 -6.882908
1.238539 0.422105 -5.825286
-0.026875 0.021919 0.155493
-0.026158 0.021216 0.150799
0.009673 -0.075189 -0.310139
-0.031606 -0.085074 -0.375476
-0.030873 -0.086283 -0.365243
-0.223156 0.175759 -0.591026
-0.010005 0.127786 0.404215
-0.187613 0.067587 -0.452028
0.481258 0.712407 2.774034
0.423796 -0.274726 2.271228
-0.301866 -0.041262 -1.026378
-0.016263 0.052865 0.233293
-0.215584 0.015419 0.657956
-0.176169 0.082875 -0.394071
-0.174928 0.066824 0.600007
0.026064 -0.086324 -0.224957
-0.591277 0.160174 -1.758721
0.053539 -0.090041 -0.135899
-0.213741 0.157864 -0.562511
-0.080287 -1.337374 -4.942923
-0.299373 -0.057750 -1.012399
0.312459 0.298034 1.517337
2.104331 -2.175185 13.021837
-0.252084 -0.086156 -0.956121
0.177915 0.127695 0.993181
0.027374 -0.279790 0.521398
-0.107695 -0.082819 0.409575
-0.151445 0.055990 -0.372605
0.046448 -0.085320 -0.175817
-0.025406 -0.091198 0.258657
0.026231 -0.112657 0.368682
0.013808 -0.071347 -0.319096
-0.072347 -1.353628 -5.017469
0.025631 -0.086842 -0.222138
-0.056660 -0.133963 -0.404761
-0.101367 0.094785 -0.426694
-0.289884 -0.251265 -2.223155
0.009833 -0.125163 0.395345
-7.516805 -6.205790 -34.374973
-0.293894 -0.249515 -2.230889
0.317116 0.303264 1.533934
-0.024076 0.029787 0.128147
-0.063012 -0.117882 -0.479349
0.021970 0.073967 0.289063
-0.152767 0.033877 -0.278241
-0.032823 -0.069568 0.026863
-0.206488 -0.261443 1.527945
-0.042578 0.021625 0.155402
-0.623293 0.164307 -1.812082
-0.101129 -1.230511 -4.583032
-0.298751 -0.108833 -1.303284
0.054406 -0.089502 -0.136011
0.028929 -0.086528 -0.226946
-0.066530 0.079262 -0.150953
-0.361894 0.152439 -2.024849
-0.334942 -0.137787 -1.273396
-0.549101 0.145678 -1.645297
-0.001742 -0.050922 -0.065205
-0.150782 0.032477 -0.269543
-0.044085 0.068216 0.220243
-0.331909 -0.134060 -1.258694
-0.015697 -0.090399 -0.241994
-0.040830 -0.054515 -0.098283
-1.057144 -1.430014 -14.937468
4.129178 -5.259642 18.481342
-0.039821 -0.092484 0.406727
-1.418366 0.740342 -3.989277
-0.132097 -0.094707 0.578656
-0.117940 -0.088106 -0.415143
-0.302078 -0.042675 -1.023452
-0.113307 -0.048607 0.808882
-0.078680 -0.128660 0.471978
-0.300182 0.022509 -0.893226
-0.646707 0.165620 -1.852918
-0.300096 -0.068131 -1.034451
0.009745 -0.108101 0.297633
0.106570 -0.200316 0.659826
-0.152833 0.755642 2.089012
-0.038472 -0.069201 0.207923
-0.116541 0.122871 -0.420892
-0.295600 -0.241456 -1.475418
-0.172851 -0.040630 -0.756469
-0.027966 -0.091225 0.177079
-0.113114 0.091812 -0.318033
-0.299878 -0.044276 -1.006488
-0.298661 -0.063790 -1.027996
-0.302715 -0.046328 -1.006685
-0.124503 -0.080825 0.659406
-0.024477 -0.114223 -0.112902
-0.027596 -0.112778 -0.241421
0.066218 -0.224557 0.277606
-0.492356 0.098851 -1.575417
-0.169683 0.116037 -0.452705
-0.077116 -0.146816 -0.440038
-0.987041 -2.290847 20.362043
-0.250473 0.061138 -0.640590
0.012706 -0.248728 0.809539
-0.780659 0.289767 -3.774631
0.478449 -0.508991 3.404751
-0.090993 -0.100168 -0.719100
-0.186864 -0.023223 -0.639552
-0.185925 -0.022939 -0.636568
-0.089096 -0.091774 -0.588171
-0.415557 0.727752 -1.975677
-0.140447 0.251081 1.371464
-0.000488 -0.048398 0.057910
-0.004009 -0.117371 -0.446949
0.140982 0.056149 -1.966873
-0.106251 0.029490 0.256653
-2.468433 1.425293 -7.032622
-0.202625 -0.021911 -0.867072
-0.057294 0.077905 -0.545984
-0.091868 -0.101880 -0.720144
0.591850 1.487787 -4.205657
-0.160972 -0.004626 -0.910694
-0.204254 -0.128122 0.641383
-0.147009 0.242552 1.320264
-0.195107 0.067722 -1.082399
2.428752 -1.967643 6.815636
2.201222 -1.799113 6.195450
-0.166639 -0.133148 -0.638987
-0.878978 -1.292837 3.406608
-0.057988 -0.047969 0.113586
0.033558 -0.151690 0.230975
-0.229711 -0.207520 1.786894
-0.201208 -0.021685 -0.865876
-0.054942 -0.050003 0.107255
-0.248744 -0.101502 -1.393860
0.030720 -0.067598 -0.330306
-0.093939 0.112782 0.585965
-0.015605 0.007250 0.066086
-0.234282 -0.163893 1.619656
-0.265031 0.377190 -1.571911
-0.077226 -0.099125 -0.221231
-0.122775 -0.044329 -0.184299
-3.335701 3.788633 -12.444565
-0.163573 -0.135432 -0.638492
0.040935 -0.095304 -0.292904
-0.222144 -0.224442 1.841327
-0.110973 -0.089623 -0.779512
-0.518396 0.800310 -2.265413
-0.023260 -0.075915 -0.679394
-0.079736 -0.292108 -2.523717
-0.000338 -0.047248 0.031374
-0.020486 0.517063 -2.044250
0.079794 0.953734 5.166863
-0.182032 -0.088975 -0.786009
-0.123066 0.118311 -0.537090
-0.053346 -0.043440 -0.354775
-0.176806 -0.096346 -0.661241
-0.218546 0.140114 -1.245621
-0.301717 0.294541 1.318654
-0.188998 0.821390 -3.039891
-0.050967 -0.181493 -0.660981
-0.169446 0.104909 -1.060039
0.563856 0.450557 -6.668387
-0.302945 0.287598 1.308861
-0.266837 0.890307 -3.080884
-0.033129 -0.092658 -0.633538
0.411483 1.367002 -5.363642
-0.091095 -0.005106 0.000971
0.032574 0.122311 -1.135870
-0.126387 0.060181 -0.370072
-0.109770 -0.136277 -0.619820
-0.210150 -0.060688 -0.731787
-0.113517 0.074769 -0.500486
-0.108306 0.062634 -0.456975
-0.574496 0.372308 2.716509
-0.661874 5.331328 30.413555
-1.277818 2.006561 -6.655658
-0.142415 0.105876 -0.636964
-0.174323 0.029911 0.695639
-0.180619 -0.088967 -0.785765
-0.397522 0.480278 2.218952
-0.176345 -0.111958 -0.680931
-0.202362 -0.043867 -0.868606
0.414060 1.363834 -5.375500
-0.586107 0.829057 -3.639039
-0.884369 -2.858753 -19.049137
-0.127512 0.161289 -1.128556
-0.195309 0.213845 -1.341017
-0.192377 0.052437 -0.519978
-0.021037 -0.163462 0.554909
-0.196544 -0.070536 -0.992979
-0.021700 0.030996 -0.217626
-0.392569 0.559454 -1.620008
-0.221462 0.074622 1.166462
0.065727 0.114629 0.892537
0.012339 0.226808 0.237293
-0.111696 0.216726 1.040074
0.042535 0.163433 0.969433
-0.135252 0.229285 0.990170
-0.129061 -0.183683 1.798831
0.063142 0.131102 0.812551
0.096962 -0.040932 2.194683
-0.173758 0.071333 1.210827
0.036769 0.190444 0.848857
-0.189867 0.078630 1.192822
0.316780 -0.342527 3.333483
0.064973 0.166204 2.119580
0.078204 -0.141900 1.589535
-0.050410 0.258156 0.922246
1.390221 -2.070303 6.151627
-0.214248 0.077710 1.254565
-0.019104 -0.526050 1.809545
-0.165315 5.234984 -14.626966
-0.186106 0.663145 -1.681253
0.236937 -0.850240 2.458107
-0.585976 -0.698061 2.418202
-0.224652 -0.168707 1.433973
-0.119911 -0.137272 1.690439
2.129204 -1.423166 9.596969
-0.216796 0.104572 1.463339
1.169387 -3.086510 11.093299
-0.056920 0.247455 0.952114
-0.583548 -0.584986 1.958423
0.131478 -0.402050 1.882344
0.007212 0.245748 0.860824
-0.517999 -0.444375 4.134799
-0.048744 0.229813 1.471084
-0.406271 -1.073675 3.019379
-0.395618 -1.066012 2.998543
0.835177 -1.937430 5.769208
-0.056123 0.245683 0.953720
0.004168 0.215115 1.026279
-0.199856 0.198900 1.174848
0.926920 -0.917820 5.602017
-0.298588 -0.482797 1.762017
-0.214953 0.080789 1.186762
-0.453592 -0.342881 2.131098
-0.118832 -0.522057 1.742880
-0.192258 0.252821 0.959969
-0.126914 -0.331245 1.633436
0.090547 0.136784 1.405008
-0.264035 -0.432986 1.733389
0.017737 -0.313175 2.031361
0.022969 -0.170741 1.460968
-0.194300 0.251540 0.962637
-0.053975 -0.484345 1.700479
0.064305 0.155740 0.746410
-0.192772 0.274864 0.934945
0.137084 -0.431725 1.947752
-0.203684 -0.187814 1.487781
0.260342 0.604178 -2.061234
-0.130740 -0.065714 1.492422
-0.043096 -0.833570 2.778112
-0.016511 -0.539987 1.770076
1.169184 -1.016144 4.444229
-0.204923 -0.191550 1.491933
-3.309699 4.379025 -15.507084
-2.147097 2.814103 -9.275708
2.066602 -1.424810 9.415390
0.138400 0.074091 1.337753
0.077913 -0.478658 1.777433
0.003014 0.219569 0.897106
-0.221007 0.146604 1.069570
-0.178018 -0.469739 1.830105
-0.308658 -0.170477 1.436672
0.420856 -1.123089 4.031190
-0.095483 -0.040950 1.579314
0.082796 -0.700447 2.130979
-0.374958 -0.214213 1.671399
0.114480 -0.695452 2.596129
0.004177 0.239149 0.899480
-0.277291 -0.765688 2.522007
0.067010 0.152331 1.200271
0.098201 -1.234381 3.385087
0.048594 0.119066 1.035700
-0.353498 -0.169576 1.457099
0.029725 -0.052688 0.143260
-0.084709 0.042931 -0.808652
6.107512 -11.750842 -72.994179
-0.989143 -0.121621 -3.399420
0.271489 -0.243549 0.812389
-2.398579 5.247519 34.496796
0.467104 -0.204335 1.189052
0.454188 -0.208171 1.162409
0.278763 0.515838 -1.912630
0.363836 -0.156718 -2.155440
0.227340 -0.210237 0.661896
0.145514 0.165655 -0.595060
0.499355 -0.143219 1.405752
0.259489 -0.233119 0.770079
0.106139 -0.232889 0.644630
0.227320 -0.208806 0.660904
0.253533 -0.232460 0.750249
0.421866 -0.197661 1.090297
0.383190 -0.216400 1.094277
-1.720726 -2.436086 9.045269
0.366097 -0.161706 -1.958016
0.473480 -0.417857 2.195820
0.633762 -0.815314 2.436514
-2.775225 -1.855666 8.846573
0.174715 -0.270425 0.851410
-0.474231 -0.397736 3.469293
0.012078 0.006125 -0.020225
0.266326 -0.318364 1.182669
0.459731 -1.204232 3.271127
0.412402 -0.607500 1.964813
-4.936396 -3.914302 24.134539
0.237501 -0.004723 0.542085
-0.088605 0.052430 -0.858104
0.375535 0.589697 -1.222304
0.347406 -0.232788 0.906646
0.610595 1.094832 5.064775
0.121316 0.210358 -0.322727
0.012200 0.007680 -0.020343
0.721392 -1.062640 3.075600
-0.237041 -0.155488 3.121623
0.248897 -0.260537 0.856459
0.360525 0.206254 2.252357
0.350379 0.219327 2.202644
-0.414604 6.378736 28.808044
0.637346 -0.259606 1.614806
-0.073168 -0.079912 -0.335599
0.366590 0.233469 2.413078
-0.136549 -0.499756 -2.741864
0.253652 -0.271096 0.901880
0.243469 -0.241824 1.210733
0.825741 -1.395789 -4.775682
0.091226 0.108189 -0.078537
9.936783 -39.734825 -170.021439
7.569593 -29.952827 -128.435608
0.088880 -0.569228 2.366471
0.286336 -0.306267 1.285001
0.405404 -0.998714 3.058157
0.143576 0.011784 2.242046
0.037371 0.091689 -0.424905
-1.379501 -1.261932 10.816278
-0.493300 0.177794 -2.723011
-0.082073 -0.099129 2.658203
0.833252 -1.417258 -4.828313
-0.044812 0.103771 -0.538081
0.337844 -0.145946 0.885845
-0.084124 0.035496 -0.808725
-0.094082 -0.105453 2.655171
0.003058 0.037969 -0.116426
2.836205 -2.926377 -16.073051
0.215776 -0.706505 2.326732
0.354091 0.194447 2.175669
0.386396 -0.118725 1.087804
0.052298 0.173785 -0.686603
-0.082051 -0.090051 2.239725
0.288368 -0.019000 0.814381
0.290994 -0.529211 1.745268
0.277527 -0.121400 0.775740
0.776734 0.078973 3.051535
0.687691 -1.094373 3.156327
0.167415 0.063730 -0.234262
0.343877 -0.199233 1.048798
0.308485 -0.049659 0.842085
0.333598 -0.170263 1.279872
0.449113 0.030445 -2.562832
-0.006739 -0.203019 -0.767577
0.752441 0.748130 -7.388671
0.172804 -0.835648 2.993566
-0.198633 -0.605809 3.493828
1.207822 0.972777 6.475646
0.042762 -0.837828 2.727869
0.048948 0.014656 -0.230665
0.159348 -0.202934 0.562063
0.333514 3.404475 -9.624904
0.250689 -0.158890 1.396228
0.194187 0.036590 0.295657
0.188678 -0.002124 0.737852
0.239382 -0.227764 0.876514
0.277191 -0.218608 0.892232
0.265208 -0.207690 0.874365
0.143197 0.002814 0.793151
0.336395 -0.147156 0.856320
-0.073551 0.027137 0.393152
0.346554 -0.161619 0.896843
0.445686 -0.310450 1.151222
0.051130 0.044638 0.259331
0.257503 -0.066649 0.703292
0.145220 -0.208998 0.714305
0.110728 -0.023321 0.727763
0.451378 -0.313924 1.158604
-0.140464 -0.104140 0.583464
-0.128488 -0.068567 0.601635
0.066890 0.127933 0.597268
-0.102215 -0.161955 0.559357
0.260046 -0.067654 0.705502
-0.033488 0.024559 0.288749
-0.025739 0.112551 0.404065
-0.116457 -0.064503 0.653903
-0.011373 0.033142 0.054240
0.252395 -0.199163 0.859433
0.202861 -0.045426 0.558458
-0.025220 -0.057447 0.250862
0.011494 -0.135641 0.665411
0.107223 -0.019123 0.719882
0.269029 -0.138333 0.773826
-0.064398 -0.154303 0.589743
0.004903 -0.037194 0.473469
0.110769 -0.137653 0.641898
-0.088032 -0.073437 0.452058
-0.100357 -0.036262 0.624963
-0.196566 -0.157778 0.599460
-0.198579 -0.158712 0.601462
0.082050 -0.141293 0.518682
0.109067 -0.026131 0.727502
0.040674 0.006533 0.383941
0.091931 0.102649 0.484883
-0.049559 -0.023053 0.426800
0.089010 -0.063515 0.540912
0.108889 -0.026016 0.727100
0.026253 0.113886 0.654249
0.057839 -0.184240 0.680263
-0.157606 0.054467 0.685452
0.263252 -0.145587 0.842461
0.154818 -0.145717 0.750042
0.107562 0.077280 0.691953
0.112127 -0.022681 0.726749
0.042028 0.035831 0.198278
0.025569 0.115510 0.650578
-0.140136 -0.132706 0.568685
-0.113932 0.002445 0.607713
0.248721 -0.149492 0.780139
0.130158 -0.134729 0.805546
-0.068946 -0.072510 0.484649
0.045962 -0.118969 0.477370
0.306203 -0.203830 0.865113
0.224681 -0.122200 0.822561
0.050840 0.062159 0.284082
-0.051118 0.126713 0.623045
-0.011594 -0.206389 0.589860
0.085234 -0.188894 0.578849
-0.024413 -0.024319 0.418539
0.020905 -0.137855 0.673920
0.293292 -0.159362 0.879358
0.132090 -0.046300 0.731284
0.046237 -0.119749 0.481132
0.067914 0.047917 0.295102
0.269936 -0.177633 0.817737
0.171097 -0.033228 0.755183
0.116140 -0.128768 0.600589
-0.032373 -0.098947 0.656262
-0.009578 0.035367 0.092904
0.036049 -0.092298 0.419057
0.022719 0.087132 0.485217
0.144819 -0.092201 0.821554
0.014469 0.022922 0.643394
0.112751 0.022141 0.374452
0.110051 -0.186992 0.632575
0.088817 0.069749 0.520137
-0.049756 -0.050674 0.501362
-0.105910 -0.167206 0.552857
0.129140 -0.135279 0.804502
0.067018 -0.110351 0.648871
0.063265 -0.101695 0.637536
-0.068508 -0.116646 0.413513
0.001007 0.029609 0.094455
0.046203 -0.153585 0.533461
0.234161 -0.050835 0.825203
-0.028232 0.026907 0.641185
0.009102 -0.189654 0.608995
-0.008919 0.017723 -0.047929
0.229371 -0.100645 0.575921
0.182773 -0.146243 0.537709
0.115129 0.014308 0.394034
0.126808 -0.044478 0.293390
0.115292 0.013723 0.395125
0.084009 -0.095045 0.628782
0.036796 -0.206894 0.526888
0.050859 -0.078196 0.592536
0.230409 -0.097417 0.578014
0.155356 0.234438 0.924546
0.068942 0.046073 0.327084
0.110683 -0.085534 0.310045
0.136774 0.212943 0.827507
0.128643 -0.043302 0.297494
-0.069547 -0.051864 0.313183
0.138519 -0.102928 0.379384
-0.072169 -0.080272 0.578713
0.144330 0.199497 0.815704
0.051839 -0.017776 0.161171
0.014121 -0.021622 0.061622
0.133324 -0.042040 0.308847
0.067757 0.001781 0.402090
0.002955 0.141697 0.797828
0.084227 -0.165484 0.542339
-0.014296 -0.149871 0.549571
0.066620 -0.057854 0.636177
-0.060751 -0.029536 0.220069
0.072499 0.050433 0.362581
0.073692 0.054673 0.377080
0.067512 -0.072165 0.212022
-0.019778 -0.096446 0.518914
0.214750 -0.057399 0.624470
-0.123540 -0.150468 0.518030
0.035005 -0.092991 0.614910
0.105432 0.089511 0.800311
-0.091636 -0.109896 0.572814
-0.036786 -0.070378 0.183397
0.009846 0.152723 0.812738
-0.070370 -0.053407 0.319631
0.143869 0.172995 0.889794
0.077936 0.331093 1.160285
-0.084117 -0.076394 0.257187
0.046651 0.003089 0.377273
0.100220 0.083203 0.462127
0.104739 0.089649 0.800575
-0.026804 -0.130193 0.491457
0.009464 0.147908 0.806473
0.083018 -0.165410 0.542177
0.182226 0.073948 0.685777
-0.008496 -0.075364 0.210903
0.133211 0.027734 0.436957
-0.020658 -0.079033 0.505678
0.182119 0.074834 0.687088
0.215515 -0.053472 0.605033
0.162335 -0.066828 0.640517
0.159999 0.178587 0.843395
-0.065967 0.057172 0.286568
0.012842 -0.083081 0.524889
0.162200 0.119499 0.824493
0.115905 0.110456 0.560403
0.050327 -0.062844 0.475948
0.055178 -0.163256 0.589569
0.182079 0.075039 0.691052
-0.002548 -0.026606 0.557624
-0.061112 0.122164 0.736320
0.116467 0.281169 1.051517
-0.088222 -0.073444 0.541728
0.026736 -0.135878 0.477160
0.118983 0.145429 0.806750
0.111263 -0.118275 0.514365
0.104909 0.125715 0.573078
0.095337 0.170411 0.824751
0.181720 0.073425 0.688779
0.158972 0.176482 0.831087
0.114478 0.145223 0.801644
-0.048563 -0.091161 0.588039
0.055296 -0.187691 0.509985
0.068082 -0.159360 0.551521
0.176738 0.223307 0.978496
0.146004 0.159956 0.760424
0.108929 0.094710 0.506093
-0.076742 -0.071062 0.496541
0.195674 0.061493 0.712771
0.162870 0.134970 0.848811
-0.060324 -0.144137 0.597036
0.094382 -0.157086 0.466522
-0.009285 0.145644 0.869738
-0.027554 -0.073855 0.628806
0.172474 0.147589 0.845096
-0.039917 -0.151301 0.523433
0.029706 -0.184207 0.566619
-0.013939 -0.197782 0.671743
0.153653 -0.042665 0.580962
0.007687 0.150800 0.665610
-0.044997 -0.112316 0.378842
-0.004165 -0.040653 0.554989
-0.388256 0.269876 -1.034179
0.030515 -0.054090 0.147070
-0.994002 0.419832 6.704851
0.148376 0.099151 0.703999
-0.653780 0.194231 -1.499689
-0.102551 -0.038121 0.004514
-0.762061 0.237931 -1.735197
-0.115086 -0.032465 0.318362
-0.545444 -0.443578 2.268631
-0.495172 0.240599 -1.076619
-5.251278 -1.017953 -17.679325
0.210478 0.320639 -3.065818
-5.595542 -1.085065 -18.904493
-0.530941 0.084959 -3.989687
0.037661 -0.036009 0.192798
-0.435258 0.262257 -1.082576
1.279277 0.172819 4.315424
-1.066016 -0.390632 -4.224913
-0.098318 -0.145891 0.623125
-0.473923 -0.107094 -2.588565
0.015802 0.218109 0.789506
0.013821 0.734986 2.834202
-0.150736 -0.027977 -0.009308
2.002966 2.179871 11.978521
-0.431648 -0.244628 1.615988
1.288077 0.176242 4.341796
-1.114005 -0.400934 -4.406424
0.082738 0.056661 0.827315
-0.550448 -0.378176 2.383595
0.072163 0.198533 0.863511
0.320816 0.514563 2.212149
0.040693 0.108385 0.474348
0.039677 -0.042141 0.210012
0.134610 0.099496 0.683811
0.166547 0.130377 0.773128
-2.324135 1.551319 -7.319238
0.006572 0.026695 0.534512
-0.847277 0.706317 -4.315640
0.043804 0.134980 0.499939
-1.738014 -1.971643 -10.925088
-0.413178 0.250598 -1.146876
-0.628237 0.269284 -1.675177
0.047194 0.122319 0.498541
-0.646735 1.225795 -4.442640
-0.664384 0.113719 -1.750220
-0.633179 -0.485333 2.802279
-0.725954 0.133855 -1.865980
0.174053 0.143830 0.807747
0.103616 -0.242078 0.992202
-0.527232 0.334578 -1.665498
-0.058420 -0.035062 0.375387
0.159437 0.133178 0.754268
1.264032 0.275913 4.331053
-3.842965 -2.121612 33.564190
-0.434645 0.125415 -2.690735
-0.058413 0.959173 -4.158045
0.282809 0.022390 1.619846
-1.277851 -0.922373 9.056465
-0.418698 -0.220723 -2.352072
0.020520 0.270364 1.058194
0.130594 -0.282132 1.158383
-1.193915 -0.587206 10.339013
-0.025489 0.071345 0.353344
-9.701802 1.237014 41.221035
-0.433783 -0.257420 1.667635
-6.443275 -0.206651 27.447142
-0.054831 -0.035560 0.375662
-0.648558 0.294275 -1.854578
-0.198821 0.528879 1.733965
-7.804921 -25.575659 101.290985
-0.415681 0.395611 -1.901291
-0.352969 0.161506 -1.679250
3.700184 -2.051587 14.115637
-1.352323 1.549216 6.397896
-0.144406 -0.100875 0.641473
-1.257170 -0.911175 9.042296
0.513994 -0.703451 2.904297
-0.456394 0.037774 -1.379918
-0.460512 0.664800 -3.680115
-0.370651 0.009078 -0.865503
-0.269378 0.655406 -3.198681
0.550720 -0.733294 3.039413
0.984506 2.855254 -13.963375
-0.267159 0.282849 -1.502465
-0.550743 0.114736 -1.778426
-0.233658 0.142102 1.091235
-0.555152 0.110453 -1.772636
-0.102169 -0.092714 0.384074
-0.055653 0.122928 -0.405896
-0.091271 0.235666 1.366292
-0.022555 0.001676 -0.212546
-1.509936 0.624074 -5.710327
-0.122339 0.031208 -0.338164
-0.122212 0.030638 -0.339753
0.145680 -0.265784 0.859724
-0.059490 -0.072839 0.248848
0.017628 -0.044731 0.126831
-0.231048 -0.016359 1.255903
-0.162543 -0.016696 -0.512839
-0.153151 0.020893 -0.105200
-0.179977 0.071388 0.975794
-0.009433 0.087336 -0.291993
-0.123975 -0.024253 0.742729
1.385955 1.831848 8.463600
0.416240 0.821461 4.520770
0.292958 0.328086 1.605720
-0.346170 0.055689 -0.665176
-0.111743 -0.062295 -0.541252
-0.345738 0.055607 -0.664818
-0.738501 0.027501 -2.066433
-0.013778 0.070106 -0.299622
-0.243135 -0.014595 1.426078
-0.027359 -0.157067 0.174242
-0.571342 -0.180085 -1.905468
0.023465 -0.003820 0.159723
0.822105 -0.202627 4.806266
0.034039 -0.015923 -0.269058
-0.099312 -0.075799 0.450909
-0.117455 -0.023099 -0.446542
-0.095113 -0.385051 1.465781
-0.011611 -0.036052 0.061599
0.827365 -0.215566 4.844632
-0.042323 -0.139444 0.549572
-0.010323 -0.035972 0.062992
0.029169 0.087947 -0.379205
0.029515 0.087648 -0.379204
-0.159182 -0.124989 0.465582
0.064637 -0.245510 0.507049
-0.153417 -0.165543 0.158825
-1.360470 -0.493455 -5.935527
0.060881 -0.175550 0.690530
0.037428 -0.209329 0.982867
-0.045860 -0.006439 -0.336136
-0.074630 -0.266649 0.884546
-0.110246 -0.155612 -0.319331
0.032051 0.044963 -0.264982
1.059724 0.028490 6.199855
-0.110435 -0.155558 -0.320278
-0.000735 -0.040415 -0.303930
-0.282712 -0.156606 0.874533
-0.023820 0.062449 -0.200789
0.039283 0.054539 -0.140612
-0.122662 0.031987 -0.332282
1.334161 -0.383928 5.484207
-0.131246 -0.071241 0.691670
-0.003464 -0.026204 0.092835
-0.007628 0.020635 -0.181452
-1.002761 -0.843810 -7.580830
-0.065520 -0.090517 0.540742
-0.016492 0.012176 -0.171751
0.034749 -0.040694 0.164626
-0.122621 -0.025233 0.297565
-0.001688 0.232426 1.046063
-1.885031 0.211175 -5.593868
-0.061131 -0.052738 0.274898
0.203084 -0.397380 0.931316
0.047793 -0.054157 0.219532
-0.016167 0.054649 -0.212733
-2.861863 -0.903016 -9.351591
0.012418 0.113609 0.340062
0.423766 -0.086778 2.281671
-0.002918 0.018303 -0.145644
0.018592 0.008546 -0.133132
-0.143216 0.164068 0.838627
0.012509 -0.059284 0.143249
-0.094353 -0.089852 0.464242
-0.206631 -0.124953 -0.602154
0.693260 0.351290 4.149833
-0.287375 -0.091551 1.199847
-0.499224 -0.076569 -1.548344
0.339264 -0.719686 6.324745
-0.002083 -0.175136 0.842164
0.009194 0.004332 0.041982
0.013819 -0.000234 -0.054742
0.008840 0.004806 0.040519
0.076433 0.061262 0.367049
0.010356 -0.175937 0.232527
-0.082850 -0.107330 0.666301
0.007839 -0.001121 0.032936
0.169519 -0.060264 0.675379
-0.000604 -0.007240 -0.027825
-0.099376 0.036327 0.545994
0.038149 0.042936 0.188616
0.023478 0.005234 0.239669
0.029336 -0.088948 0.073876
0.004834 0.003397 0.022421
-0.007417 0.027523 0.121338
0.022365 0.007932 0.234558
0.010937 -0.004232 -0.055439
-0.044107 0.144386 0.914772
0.000553 -0.060996 0.045975
0.005010 -0.000779 0.032880
-0.087049 -0.099095 1.045713
-0.043595 0.140962 0.910567
0.043914 0.039385 0.177227
-0.007362 0.029438 0.126819
0.009744 0.000354 -0.041128
0.041738 -0.022266 0.201794
0.032543 -0.089719 0.129892
-0.000297 0.006782 0.004469
0.031795 -0.245749 0.204590
0.020820 0.030634 0.117231
0.098538 -0.196191 0.214411
0.065182 0.012553 0.184975
0.009503 -0.217632 0.225360
-0.101548 0.057469 0.492018
0.010904 -0.173038 0.225004
-0.097478 0.036064 0.561789
-0.000848 -0.006999 -0.030050
0.048443 -0.119604 0.590206
-0.045577 0.089654 0.445267
0.002232 0.052263 0.203619
0.054833 0.047769 0.566295
0.013662 -0.039818 0.457412
-0.024661 0.022343 0.107682
-0.001665 0.008323 0.000948
-0.008114 0.005974 0.050663
-0.206678 -0.056685 0.858759
0.068240 0.039667 0.252777
0.060495 0.016527 0.161307
0.064632 0.012926 0.187611
0.035091 -0.158770 0.211873
