0.001943 -0.004763 0.895402
0.010412 0.003659 0.625635
0.000251 -0.011934 1.271399
0.013024 0.017323 1.091850
0.122957 0.042948 8.272487
-0.011823 0.024429 0.141479
0.012266 0.015596 0.906396
0.019775 -0.004061 1.218021
0.009062 -0.016356 1.437192
0.003491 -0.004130 0.119978
0.006426 -0.013721 1.279835
0.000389 0.006415 0.318072
0.022387 0.007179 0.864321
0.008064 -0.005661 0.785438
0.012993 0.006689 0.957978
0.013764 0.016661 1.074116
-0.005667 0.018511 1.271330
0.021019 0.008207 0.890332
0.014539 -0.006206 0.718999
0.013413 0.015358 1.060061
0.018005 0.010023 0.939364
0.015616 0.017083 1.079530
0.005597 0.001934 0.246969
0.012752 0.018928 1.123828
0.013012 0.016116 1.070000
0.018570 -0.008147 0.710505
0.011783 0.003619 0.600628
0.015322 0.003160 0.918416
0.013670 0.004075 0.941269
0.017259 -0.000502 1.202771
0.016171 0.012828 0.962243
0.021929 0.007066 0.862090
0.017885 0.012372 0.953660
0.018492 0.009114 0.927792
0.001858 -0.005145 0.809517
-0.014981 0.027696 0.121259
0.013742 0.006174 0.961677
0.014212 -0.014442 1.343023
0.019316 -0.007167 0.679443
0.005065 -0.003281 0.290860
0.009148 -0.006949 0.780974
0.012780 -0.007293 0.724939
0.013973 0.016768 1.083032
0.015531 0.017700 1.099537
0.007434 -0.003290 0.329046
0.032703 -0.022788 1.570956
0.012104 0.015009 0.922276
0.010424 0.003913 0.632988
0.004460 -0.006804 0.539880
0.001080 -0.004520 0.903608
0.014298 0.016583 1.056273
0.003996 -0.002078 0.162187
0.009904 -0.014066 1.344909
0.007757 -0.005349 0.675796
0.003041 -0.006304 0.808187
0.013632 -0.006746 0.765440
-0.011685 0.069598 4.041938
0.004552 -0.006741 1.115473
0.003199 0.012829 1.145782
0.003963 -0.004548 0.682061
0.033175 -0.020431 1.439592
-0.021286 0.029291 0.195833
0.004936 -0.005049 0.831982
0.013870 -0.007037 0.718835
0.016852 0.012661 0.969692
0.012169 -0.003308 0.934951
0.007370 -0.000517 0.546840
0.007474 -0.000223 0.456666
0.001489 -0.000191 0.052546
0.006238 0.001155 0.404607
0.005934 0.000793 0.347156
0.004822 0.001694 0.355935
0.006174 0.001062 0.394642
0.007556 -0.000459 0.442168
0.007501 -0.000366 0.450195
0.001539 0.001429 0.093901
0.007296 -0.000544 0.551081
0.000852 -0.001199 0.011881
0.007356 -0.001249 0.597108
0.007345 -0.000502 0.548704
0.007492 -0.000551 0.521668
0.006195 0.001324 0.442146
0.005949 -0.000997 0.351473
0.006235 0.001136 0.400731
0.008631 -0.001858 0.520737
0.007420 -0.001204 0.597557
0.007645 -0.000609 0.508178
0.007523 -0.001550 0.441892
0.007292 -0.000505 0.553390
0.006704 0.000447 0.530463
0.000902 0.003175 0.139545
0.000863 0.002888 0.124594
0.005890 0.001881 0.423865
0.007615 -0.000543 0.513623
0.007310 -0.000032 0.517002
0.005977 -0.000029 0.350856
0.006665 0.000449 0.532621
-0.000763 0.002056 0.048719
0.006163 0.001016 0.391949
0.000011 0.003285 0.120824
0.005768 0.001971 0.430551
0.002528 -0.004091 0.699269
0.006606 0.000460 0.532658
0.007538 -0.000043 0.460917
0.000539 0.003134 0.128093
0.004752 0.002437 0.334734
0.007516 -0.000196 0.455623
-0.000778 0.004160 0.144473
0.000703 -0.000915 0.009261
0.004528 0.002065 0.277984
-0.001421 0.002138 0.039075
0.004654 0.001667 0.272723
0.006036 0.000707 0.337575
0.002006 0.001741 0.124898
0.006211 0.001406 0.446162
0.006296 0.001157 0.397340
0.000860 0.002909 0.125069
0.004026 -0.002907 0.946127
0.000641 0.002527 0.103838
-0.000508 0.002583 0.076198
0.004447 0.001822 0.265371
-0.000451 0.004302 0.158724
-0.009649 -0.010432 0.668947
-0.000652 -0.004389 0.305487
0.000764 0.002684 0.114266
-0.011881 -0.009104 0.662836
0.000189 0.002703 0.092500
0.007495 -0.001187 0.597647
0.006808 0.001734 0.512794
-0.049697 -0.033556 0.385963
0.006273 0.002246 0.413230
0.008678 0.002106 0.372314
0.017109 0.015490 1.909926
-0.004129 -0.005740 0.021746
-0.009731 -0.013583 0.140735
0.008630 -0.001735 0.526031
-0.003388 -0.008791 0.688875
0.004490 0.001939 0.274570
-0.001022 0.003826 0.125474
0.007848 -0.002982 0.549293
0.017705 0.015941 1.938770
0.001700 0.001363 0.102914
-0.011098 -0.010137 0.674241
0.084988 0.068972 4.218727
0.037582 0.036220 2.829986
-0.001877 -0.007644 0.888831
0.008337 0.000073 0.589143
0.003936 -0.008423 0.501389
-0.006113 -0.007644 0.457819
0.006904 -0.004128 0.478456
0.003049 -0.008229 0.813041
-0.005922 -0.005730 0.064365
-0.005135 -0.009202 0.538240
0.000605 -0.009171 0.632211
-0.016814 -0.010789 0.091908
0.526750 0.673726 30.885376
-0.002299 0.002853 0.107288
0.008390 -0.007924 0.861696
-0.030418 -0.026204 0.250893
-0.043545 -0.033992 0.521252
0.002896 -0.001713 0.085068
0.100824 0.142114 6.459075
-0.009411 -0.008553 0.683658
-0.004513 0.000059 0.287173
-0.007965 -0.008211 0.951144
0.053624 0.071261 3.996562
-0.000202 0.003913 0.109907
-0.006220 0.003360 0.035578
-0.007136 -0.009255 0.743006
0.001544 -0.007733 0.464697
-0.004681 -0.008147 0.817216
-0.011649 -0.011087 0.586936
0.018192 0.015160 1.751368
0.010219 0.009605 1.205742
-0.006784 -0.001411 0.285943
0.001282 -0.007468 0.565671
-0.000386 0.001788 0.046870
-0.000298 -0.008311 0.821810
0.011018 0.013616 1.633947
0.005305 0.003322 0.244523
0.001352 -0.008849 0.845459
0.004620 -0.007759 0.866932
-0.007575 -0.001539 0.235692
0.000432 0.003190 0.126771
0.004331 -0.007610 0.967766
0.000547 -0.002625 0.432997
-0.007953 0.007350 1.021567
-0.003630 -0.005248 0.359928
0.079047 0.094096 4.968431
-0.004063 -0.010001 0.749820
-0.000199 0.008092 1.261766
-0.004331 -0.003519 0.501817
0.007047 -0.008581 0.789820
0.006061 -0.008737 0.775437
-0.001050 0.004177 0.274555
0.004115 -0.008034 0.509897
0.009268 0.003956 0.430038
-0.008835 -0.009147 0.732763
-0.006978 0.010022 1.138011
-0.002903 0.001819 0.124349
-0.021518 -0.012879 0.143976
-0.004564 0.001575 0.028211
-0.013092 -0.009524 0.547186
-0.009449 -0.008549 0.684645
-0.042061 -0.014352 0.468001
-0.046870 -0.021501 0.746833
-0.050749 -0.022397 0.766574
-0.050369 -0.022503 0.755757
-0.047266 -0.021662 0.749433
-0.311997 -0.066310 1.719759
-0.220310 -0.052824 1.374828
-0.049799 -0.015076 0.545215
-0.065664 -0.020629 0.635427
-0.051903 -0.022598 0.770781
-0.095966 -0.030601 0.929624
-0.023243 -0.004043 0.658524
-0.094796 -0.030785 0.921669
-0.049260 -0.022168 0.758817
-0.025640 -0.016384 0.718259
-0.158572 -0.040592 1.168955
-0.027705 -0.018507 0.680394
0.000934 -0.000270 0.130683
-0.077299 -0.027456 0.863364
-0.051338 -0.022812 0.759506
-0.051895 -0.022526 0.770693
-0.229059 -0.053653 1.420895
-0.013758 -0.017101 0.630156
-0.086010 -0.028999 0.889632
-0.012310 -0.007951 0.079991
-0.088411 -0.029320 0.898536
-0.012832 -0.009465 0.086810
-0.040768 -0.013992 0.457796
-0.081411 -0.024130 0.763671
-0.024266 -0.004278 0.661916
-0.088462 -0.029234 0.898247
-0.024402 -0.004401 0.650552
-0.017278 -0.010872 0.172975
-0.077293 -0.027510 0.863627
-0.049659 -0.022240 0.760670
-0.005978 0.000812 0.160395
-0.104782 -0.022174 0.795893
-0.024082 -0.004443 0.658103
-0.106198 -0.032795 0.961336
-0.214664 -0.054138 1.311799
-0.064843 -0.020390 0.629137
-0.004017 -0.003826 0.174632
-0.011367 0.001936 0.265140
-0.075195 -0.027012 0.847279
-0.025400 -0.005266 0.648967
-0.092688 -0.030091 0.913465
-0.054800 -0.023727 0.771765
-0.039758 -0.016555 0.392965
-0.005121 -0.000450 0.158537
-0.014773 -0.003943 0.628147
-0.066400 -0.020195 0.677496
-0.026856 -0.013536 0.288458
-0.056509 -0.023732 0.790416
-0.005674 -0.007837 0.064670
-0.030709 -0.009584 0.417738
-0.038065 -0.015757 0.376461
0.001392 -0.004898 0.019866
-0.057932 -0.018392 0.574841
-0.007857 -0.015313 0.593485
0.002355 -0.006093 0.003320
-0.011857 0.001683 0.285119
-0.222018 -0.052698 1.393122
-0.005544 -0.000200 0.160852
0.002141 -0.005723 0.007361
-0.023254 -0.004292 0.642264
-0.051823 -0.016776 0.528538
-0.035004 -0.014777 0.316226
-0.037235 -0.015895 0.372409
-0.008178 -0.008496 0.106068
-0.014295 -0.004789 0.316536
0.001021 -0.004890 0.025632
-0.016310 0.001223 0.681865
-0.006397 0.002572 0.235996
-0.006604 -0.000187 0.199437
-0.243470 -0.064014 1.524806
-0.012979 0.001432 0.299108
-0.011174 0.001975 0.258974
0.001334 -0.004910 0.021823
-0.006623 -0.000183 0.198662
-0.229638 -0.054285 1.401137
-0.025178 -0.004957 0.646595
-0.005853 0.003087 0.246996
-0.008797 -0.016073 0.602607
-0.083574 -0.028685 0.879819
-0.024474 -0.004498 0.663253
-0.013170 0.001601 0.330115
0.007040 -0.005176 0.559335
-0.059209 -0.018863 0.589127
-0.002244 -0.002634 0.140394
-0.056378 -0.017881 0.623366
-0.220623 -0.055714 1.340002
-0.238196 -0.055689 1.454368
-0.058199 -0.022537 0.645484
-0.167930 -0.032519 1.021228
-0.076242 -0.022507 0.715163
-0.076273 -0.022510 0.715446
-0.144295 -0.026272 0.924680
-0.063274 -0.018891 0.611298
-0.076687 -0.022458 0.716438
-0.108938 -0.025761 0.765999
-0.049680 -0.017198 0.559524
-0.106030 -0.024724 0.747186
-0.066713 -0.019344 0.624322
-0.038174 -0.010128 0.515033
-0.117296 -0.024682 0.838989
-0.018690 -0.006007 0.508105
-0.170783 -0.030109 1.130003
-0.018650 -0.006017 0.507710
-0.017230 -0.001731 0.431108
-0.018369 0.002224 0.438682
-0.119243 -0.020981 0.647740
-0.145544 -0.026601 0.933712
-0.017711 0.002268 0.438079
-0.058195 -0.013883 0.597442
-0.018809 -0.005981 0.508788
-0.021060 -0.006936 0.451862
-0.164954 -0.032583 1.016862
-0.019403 -0.021161 0.234247
-0.007280 -0.020359 0.162578
-0.171097 -0.033315 1.027719
-0.015431 -0.003921 0.417790
-0.017074 -0.004394 0.429948
-0.039109 -0.019016 0.549462
-0.034861 -0.008952 0.504995
-0.008704 -0.011866 0.380427
-0.052292 -0.017509 0.558297
-0.034224 -0.015173 0.489929
-0.017798 0.002359 0.438414
-0.017827 0.003104 0.434443
-0.017266 0.003340 0.432071
-0.008824 -0.000793 0.399106
-0.016571 -0.001421 0.427596
-0.053352 -0.018032 0.561828
-0.058782 -0.016930 0.594168
-0.030349 -0.014496 0.469963
-0.058440 -0.013792 0.596850
-0.155383 -0.031353 0.961604
-0.030052 -0.008280 0.490396
-0.199504 -0.038505 1.127864
-0.058196 -0.013479 0.594783
-0.053407 -0.017852 0.567910
-0.032500 -0.014661 0.484560
-0.017017 -0.004464 0.426650
-0.060061 -0.021750 0.590801
-0.032189 -0.014754 0.478094
-0.008723 -0.000711 0.398988
-0.152676 -0.030483 0.952075
-0.054276 -0.017853 0.560654
-0.054046 -0.017787 0.560077
-0.051914 -0.012427 0.569332
-0.039115 -0.018885 0.548329
-0.017164 -0.001864 0.428328
-0.031638 -0.014606 0.480019
-0.033111 -0.014990 0.491350
-0.197685 -0.040276 1.251647
-0.008690 -0.011661 0.390193
-0.068051 -0.023265 0.657442
-0.161102 -0.032052 0.984376
-0.016913 -0.004445 0.426442
-0.009241 -0.009243 0.406487
-0.049228 -0.021213 0.547857
-0.169697 -0.033199 1.013246
-0.148536 -0.029130 0.888425
-0.017378 -0.001989 0.431119
-0.007128 -0.008655 0.395739
-0.169159 -0.032968 1.019414
-0.177244 -0.034988 1.044681
-0.017062 -0.009024 0.416512
-0.059933 -0.016852 0.597528
-0.017735 0.003019 0.435392
-0.040551 -0.016383 0.457531
-0.052023 -0.012320 0.569991
-0.121866 -0.025011 0.871315
-0.082525 -0.029857 0.922130
-0.063613 -0.030323 0.944309
-0.042856 -0.011862 0.970189
-0.039376 -0.011952 0.974424
-0.039441 -0.011825 0.974953
-0.096847 -0.028952 0.904751
-0.042837 -0.030887 0.970505
0.010085 -0.019851 1.037021
0.006913 -0.018363 1.032499
-0.093819 -0.029203 0.906673
-0.091956 -0.029813 0.911513
-0.039875 -0.011700 0.973489
-0.081477 -0.028049 0.918954
-0.082405 -0.029968 0.920804
-0.082053 -0.029567 0.921334
-0.040255 -0.011991 0.973747
-0.062804 -0.030189 0.945317
-0.017232 -0.033109 1.002330
-0.136828 -0.027197 0.852283
-0.059607 -0.030325 0.950413
-0.082888 -0.029606 0.921052
-0.148685 -0.027687 0.837317
-0.140017 -0.027390 0.848549
-0.089932 -0.029743 0.911494
-0.042321 -0.011733 0.970435
-0.041635 -0.012547 0.971571
-0.082227 -0.029613 0.921126
-0.137891 -0.028497 0.846614
-0.138450 -0.027738 0.853483
-0.042231 -0.013181 0.970590
-0.040966 -0.012079 0.972853
-0.093621 -0.029008 0.907008
-0.066353 -0.030613 0.941692
-0.090930 -0.029654 0.910125
-0.041898 -0.012014 0.971506
-0.033155 -0.031486 0.982479
-0.139798 -0.027293 0.848819
-0.040367 -0.012386 0.973044
-0.042123 -0.012512 0.971272
-0.140701 -0.025640 0.845398
-0.091780 -0.029185 0.911808
-0.065648 -0.030768 0.941010
-0.040741 -0.010922 0.970224
-0.088037 -0.029864 0.913930
-0.042844 -0.012674 0.969886
-0.086127 -0.029455 0.917029
-0.022027 -0.032197 0.996501
-0.067140 -0.030129 0.941058
-0.063742 -0.030408 0.944363
-0.038208 -0.011816 0.975790
-0.039504 -0.013219 0.974073
-0.088296 -0.029496 0.914975
-0.140031 -0.027747 0.850235
-0.042717 -0.012133 0.969348
-0.139632 -0.028472 0.846298
-0.039245 -0.011769 0.974964
-0.140701 -0.028190 0.852351
-0.040327 -0.011955 0.973381
0.012156 -0.019232 1.038506
-0.091468 -0.025886 0.906667
-0.041723 -0.012872 0.971237
-0.038950 -0.011247 0.973186
-0.087734 -0.029542 0.914069
-0.082234 -0.030002 0.921230
-0.081694 -0.030259 0.923193
-0.141866 -0.027236 0.846773
-0.141688 -0.027775 0.850684
-0.041994 -0.012883 0.970905
-0.042695 -0.011336 0.968267
-0.140060 -0.028014 0.849078
-0.139614 -0.027373 0.849032
-0.140228 -0.027359 0.848258
-0.055767 -0.031161 0.955382
-0.042006 -0.012812 0.970532
-0.041745 -0.012017 0.972038
-0.031448 -0.013386 0.983408
-0.041537 -0.012613 0.971691
-0.143478 -0.028019 0.844166
-0.088385 -0.030743 0.916152
-0.066865 -0.030210 0.940662
-0.042439 -0.012568 0.969752
-0.066743 -0.028278 0.937936
-0.065505 -0.030161 0.941702
-0.088171 -0.027082 0.910294
-0.090778 -0.029836 0.908737
-0.022630 -0.032168 0.995763
-0.037800 -0.011964 0.977360
-0.039859 -0.012562 0.973993
-0.041623 -0.012041 0.971757
-0.044069 -0.012523 0.968289
-0.140497 -0.026725 0.845154
-0.090856 -0.027005 0.907373
-0.140852 -0.026961 0.842228
-0.152945 -0.024851 0.832326
-0.082304 -0.029257 0.922489
-0.022690 -0.011383 0.994906
-0.022741 -0.011429 0.995179
-0.040808 -0.012401 0.972814
-0.019002 -0.032955 1.000290
-0.014947 -0.033150 1.005285
-0.081690 -0.028018 0.918897
-0.023573 -0.011048 0.993833
-0.032033 -0.013470 0.982656
-0.040181 -0.012525 0.974826
-0.043101 -0.012181 0.969434
-0.036299 -0.003106 0.694749
-0.026169 -0.005564 0.608416
-0.024599 -0.006573 0.574664
-0.066853 -0.010274 0.478220
-0.053752 -0.014303 0.521794
-0.027155 -0.005439 0.605877
-0.027148 -0.005598 0.605312
-0.059494 0.003357 0.637272
-0.055111 0.001792 0.637848
-0.024634 -0.006029 0.574307
-0.066262 -0.011086 0.476431
-0.067495 -0.010892 0.422002
0.003068 -0.011816 0.678994
-0.066543 -0.010025 0.427359
-0.025751 0.007983 0.699596
-0.025454 -0.005377 0.611008
-0.038314 -0.002663 0.691127
-0.004336 -0.012737 0.766772
-0.050061 -0.014308 0.535260
-0.073189 -0.010884 0.456764
-0.026907 -0.017578 0.614822
-0.066577 -0.010031 0.427088
-0.066610 -0.009994 0.427013
-0.046991 -0.014183 0.501508
-0.028282 0.009679 0.698247
-0.025037 -0.006759 0.568722
-0.014892 -0.019933 0.653788
-0.084341 0.010075 0.568999
-0.027779 -0.005370 0.603303
-0.051279 -0.013896 0.481774
-0.084087 0.009852 0.566471
-0.050756 0.000209 0.646489
-0.025589 -0.006128 0.607320
-0.026611 -0.005512 0.608407
-0.046369 -0.014768 0.504197
-0.040949 -0.001696 0.681211
-0.077286 -0.009965 0.436717
-0.026282 0.008072 0.702541
-0.053751 -0.014278 0.522300
-0.050151 0.001039 0.660410
-0.019032 0.007242 0.718576
-0.047920 -0.014583 0.542527
-0.023874 -0.006788 0.572306
-0.053891 -0.013552 0.522348
-0.068319 -0.010893 0.421565
-0.054326 0.000941 0.637748
-0.038499 -0.015961 0.576626
-0.052220 -0.014183 0.541193
-0.016140 0.006556 0.726180
-0.056362 0.002959 0.655231
-0.083016 0.009195 0.564901
-0.028254 0.008621 0.722601
-0.018367 0.006410 0.718184
-0.036438 -0.016242 0.541815
-0.028289 0.010272 0.705301
0.008306 -0.003283 0.791664
-0.026525 0.008177 0.702657
-0.047816 -0.014890 0.537335
-0.027901 0.010029 0.705136
-0.019529 0.008451 0.713221
-0.056042 0.002020 0.636130
-0.098597 0.011614 0.587063
-0.027500 -0.005524 0.603978
-0.016377 0.008049 0.723868
-0.048251 -0.014840 0.543060
-0.085278 0.010016 0.573888
-0.056442 0.002804 0.655623
-0.024759 -0.006872 0.568978
-0.086864 0.009765 0.562895
-0.021012 0.006794 0.712682
-0.021375 0.007714 0.722071
-0.006107 -0.012164 0.764692
-0.085340 0.009923 0.572468
-0.091755 0.012945 0.548028
-0.028886 0.006020 0.711789
-0.013662 -0.019917 0.616666
-0.047995 -0.014904 0.545020
-0.089846 0.004217 0.575302
-0.027943 0.009174 0.695396
-0.039192 -0.002313 0.690955
-0.029245 0.005958 0.711384
-0.048253 -0.014553 0.543252
-0.017267 0.006659 0.721513
-0.028114 0.008413 0.697126
-0.084622 0.010256 0.572572
-0.084145 0.009826 0.565931
-0.085071 0.010019 0.575059
-0.044852 -0.014213 0.507019
-0.084705 0.009636 0.576917
-0.027996 0.008942 0.695469
-0.091408 0.012828 0.547045
-0.044771 -0.015988 0.501793
-0.014545 -0.019241 0.615011
-0.029212 0.005864 0.712305
-0.008951 -0.010973 0.759199
-0.059000 -0.004540 0.628676
-0.027333 0.009444 0.697342
-0.008585 -0.011000 0.760580
-0.068608 -0.010560 0.412924
-0.069260 -0.010375 0.414623
-0.048773 -0.013582 0.489693
-0.025805 0.009910 0.704021
-0.068022 -0.011327 0.412363
-0.025356 -0.006158 0.566672
-0.027656 -0.005609 0.601686
-0.026874 0.009391 0.696264
-0.040148 -0.002813 0.674461
-0.026914 -0.005209 0.604454
-0.025478 -0.006091 0.573719
-0.026526 -0.005133 0.605158
-0.067508 -0.011372 0.409678
-0.045240 -0.016586 0.617187
-0.027358 -0.015087 0.754802
-0.071944 -0.013983 0.437564
-0.068195 -0.015151 0.417136
-0.071396 -0.010461 0.430162
-0.076467 -0.013276 0.418392
-0.030296 -0.001114 0.731289
-0.030930 -0.000138 0.724282
-0.020638 -0.014778 0.780361
-0.050622 -0.015867 0.512098
-0.044774 -0.015783 0.626321
-0.031042 -0.000151 0.723655
-0.013217 -0.016553 0.802947
-0.046429 -0.016909 0.644526
-0.041406 -0.014511 0.644737
-0.075354 -0.015321 0.457308
-0.055656 -0.013383 0.556756
-0.054133 -0.017014 0.598391
-0.052762 -0.016380 0.585649
-0.053215 -0.014273 0.552033
-0.043868 -0.015810 0.635202
-0.071497 -0.013970 0.440245
-0.043395 -0.015905 0.637485
-0.071703 -0.010627 0.426437
-0.060089 -0.014385 0.555896
-0.031650 -0.001055 0.750551
-0.058910 -0.016576 0.579985
-0.021310 0.001683 0.783689
0.006997 -0.002020 0.978677
-0.014560 -0.015208 0.814294
-0.029596 -0.000108 0.752872
-0.070361 -0.009661 0.424992
-0.055819 -0.016344 0.565304
-0.044773 -0.016045 0.657359
-0.072182 -0.010975 0.427408
-0.071745 -0.012300 0.462218
-0.054977 -0.014403 0.540599
-0.031021 -0.000992 0.736106
-0.044019 -0.016446 0.606624
-0.050297 -0.016516 0.521215
-0.066283 -0.013472 0.475323
-0.072561 -0.016649 0.449626
-0.019525 -0.016060 0.738781
-0.056033 -0.015283 0.551531
-0.050553 -0.016189 0.514239
-0.064087 -0.015741 0.399049
-0.053299 -0.014263 0.579738
-0.052234 -0.014827 0.582769
-0.030916 -0.001280 0.753420
-0.029650 -0.001373 0.717630
-0.072631 -0.015728 0.442790
-0.070207 -0.012462 0.426618
-0.053861 -0.014060 0.550196
-0.072548 -0.014508 0.452565
-0.057594 -0.014470 0.550806
-0.044438 -0.014792 0.609094
-0.071660 -0.015740 0.437763
-0.055047 -0.015712 0.589274
-0.044223 -0.017519 0.648047
-0.073963 -0.015423 0.418734
-0.080372 -0.014318 0.437555
-0.057280 -0.014452 0.552870
-0.019635 -0.016228 0.766901
-0.043285 -0.014932 0.639183
-0.028739 -0.002406 0.749878
-0.074370 -0.014999 0.451287
-0.049908 -0.016347 0.521045
-0.050299 -0.016447 0.557597
-0.074639 -0.015040 0.450327
-0.072355 -0.014452 0.451212
-0.055267 -0.015299 0.566250
-0.056344 -0.015008 0.539443
-0.056947 -0.016805 0.563405
-0.074597 -0.015336 0.454604
-0.054504 -0.011737 0.545103
-0.030497 -0.001266 0.760350
-0.030182 -0.000863 0.758806
-0.028400 -0.000096 0.746831
-0.029533 0.000209 0.736598
-0.047979 -0.016424 0.538556
-0.073964 -0.014300 0.435341
-0.020923 -0.000634 0.810856
-0.029652 -0.000324 0.729792
-0.055325 -0.014976 0.562956
-0.016735 -0.016494 0.802950
-0.030436 0.000239 0.730215
-0.050227 -0.013225 0.565499
-0.054673 -0.016562 0.604959
-0.056904 -0.016838 0.562598
-0.030387 -0.001626 0.742917
-0.074081 -0.015882 0.470176
-0.028653 0.000333 0.730738
-0.028688 -0.000647 0.741425
-0.077211 -0.016753 0.471379
-0.023493 -0.001421 0.786790
-0.073606 -0.014526 0.442152
-0.039431 -0.010596 0.291399
-0.643959 -0.137382 4.641059
-0.000824 -0.000091 0.004881
-2.394415 -0.548928 15.091267
-0.049214 -0.000688 0.292730
-0.031937 0.008282 0.846006
-0.052426 -0.003680 0.312386
-0.020321 -0.011990 0.539376
-0.038030 -0.010511 0.522669
-0.050957 0.008328 1.288311
-0.040494 -0.009516 0.390725
-0.006880 -0.005534 0.152965
-0.035187 0.003311 0.840403
-0.049256 -0.000795 0.286671
-0.000781 0.007633 0.287206
-0.040409 -0.009518 0.391784
-0.011504 -0.005661 0.184367
-0.036434 -0.012187 0.506098
-0.011321 0.010087 0.108236
-0.000217 0.000125 0.001042
-0.039379 -0.012220 0.414473
-0.032040 0.008305 0.844369
-0.029780 -0.010536 0.307274
-0.201837 -0.052176 2.054464
-0.031893 0.008276 0.804487
-0.031054 0.008946 1.127719
-0.043924 0.007997 1.143062
-0.043172 -0.007322 0.570817
-0.037202 0.005225 0.866072
-0.031928 0.008279 0.808802
-0.029833 -0.010453 0.304041
-0.035914 0.004331 0.901034
-0.010624 0.011118 0.057924
-0.031072 0.008008 0.835586
-0.042253 -0.010088 0.411624
-0.041708 -0.010023 0.409718
-0.042755 -0.006033 0.560734
-0.043367 -0.006649 0.583409
-0.033445 0.007782 0.904680
-0.002504 0.000160 0.057683
-0.000955 -0.001911 0.008913
-0.003799 0.000584 0.088524
-0.002361 -0.000691 0.022053
-0.166262 -0.043810 1.790428
-0.037279 0.005799 0.885345
-0.002277 -0.002275 0.017163
-0.046827 -0.006005 0.454764
-0.002899 -0.002472 0.021045
-0.001918 -0.001179 0.051266
-0.037858 0.006973 1.013694
0.048547 -0.009011 4.325011
-0.037996 -0.012602 0.502348
-0.040444 -0.009434 0.387825
-0.039674 -0.010793 0.523668
-0.025149 0.002301 0.618226
-0.020685 -0.011578 0.944764
-0.081734 -0.026684 1.309188
-0.047415 -0.000174 0.282908
-0.010083 0.010463 0.085880
-0.024900 0.002203 0.609031
-0.040358 0.006774 1.029132
-0.036091 0.007204 0.936171
-0.010050 0.010484 0.085578
-0.009259 0.010019 0.078906
-0.036879 0.004336 0.874152
-0.040929 -0.011467 0.447532
-0.056667 0.008863 1.421792
-0.012703 0.000748 0.338392
-0.026396 -0.015992 1.136955
-0.054041 0.008718 1.368434
-0.017751 0.001392 0.430054
-0.006098 0.002997 0.269525
-0.029855 -0.010730 0.336400
-0.012419 0.009890 0.108595
-0.011316 0.011292 0.058844
-0.002364 -0.002778 0.018628
-0.023694 0.004831 0.753935
-0.032256 0.008004 0.838626
-0.033522 -0.009167 0.451439
-0.032490 0.007503 0.820684
-0.025292 0.002645 0.620450
-0.047288 -0.009653 0.299562
-0.023549 -0.018444 1.275215
-0.209285 -0.054512 2.300623
-0.012092 0.011575 0.110448
-0.027844 -0.014303 0.346454
-0.210563 -0.058013 1.957060
-0.181018 -0.051438 1.991498
-0.005176 0.001564 0.119518
-0.068787 -0.023465 0.692108
-0.668423 -0.124034 4.784297
-0.114628 -0.031591 1.262406
-0.068747 -0.023448 0.689500
-0.022065 0.004979 0.549738
-0.007085 0.002352 0.167083
-0.189499 -0.052414 1.812018
-0.103898 0.045896 2.737900
-0.149539 0.059096 3.439070
-0.124987 -0.035198 1.359238
-0.708922 -0.193238 6.767512
-0.104545 0.046838 2.770213
-0.838937 -0.228908 7.988774
-0.115053 0.029523 2.220304
-0.003577 0.002442 0.115208
-0.217071 -0.061453 2.075538
-0.068011 -0.022976 0.725765
-0.013841 0.003570 0.357409
-0.054769 -0.022020 0.863560
-0.116827 0.051016 2.857521
-0.421672 -0.115708 4.104540
-0.172666 0.071902 4.051376
-0.023136 0.004635 0.571873
-0.049272 -0.022860 0.906160
-0.014175 -0.003051 0.088720
-0.023020 0.002327 0.607424
-0.073063 -0.024216 0.735720
-0.073271 -0.023883 0.756998
-0.121753 0.025680 2.291344
-0.152508 -0.042538 1.561100
-0.262139 -0.072096 2.733661
-0.116463 0.030084 2.242325
-0.023500 0.002269 0.610518
-0.009867 -0.003531 0.470474
-0.023526 0.002335 0.609797
-0.125754 -0.034857 1.355142
-0.027296 -0.007611 0.576886
-0.062488 -0.017927 0.881717
-0.099995 0.023236 1.990450
-0.021564 0.005491 0.535209
-0.012292 0.003084 0.318055
-0.118390 0.052707 3.144835
-0.012141 0.003186 0.314318
-0.070582 -0.023720 0.727179
-0.139303 -0.038788 1.454417
-0.110173 0.053701 2.941818
-0.103608 0.027811 2.087542
-0.178662 -0.050597 1.966621
-0.101140 -0.026036 1.131161
-0.114496 -0.030785 1.252167
-0.069126 -0.019614 0.927583
-0.059405 -0.016918 0.852900
-0.023627 0.002316 0.610916
-0.004691 0.001299 0.102578
-0.022847 0.004270 0.531344
-0.100246 0.022901 1.974201
-0.145460 -0.040529 1.603702
-0.029649 -0.011434 0.660908
-0.073364 -0.024194 0.737477
-0.028576 -0.007638 0.285593
-0.100560 0.023319 1.982825
-0.024603 0.004225 0.569659
-0.070972 -0.023862 0.724595
-0.030241 -0.008592 0.301987
-0.024357 0.004496 0.563591
-0.107482 0.030306 2.196136
-0.016288 -0.004274 0.098851
-0.075144 -0.022794 0.783030
-0.072014 -0.024404 0.755559
-0.020586 -0.006171 0.550775
-0.103138 0.025381 2.014786
-0.008057 0.002036 0.182155
-0.121128 0.026354 2.375697
-0.012987 -0.003388 0.477621
-0.112381 0.029967 2.259512
-0.157950 -0.043705 1.607945
-0.016665 0.002912 0.394263
-0.106989 0.027299 2.127636
-0.068363 -0.022654 0.888433
-0.022165 0.004579 0.543027
-0.067846 -0.025840 0.460026
-0.180300 -0.050729 1.777561
-0.109439 0.031850 2.244380
-0.104967 0.028170 2.120559
-0.149893 -0.042132 1.549296
-0.137198 -0.037200 1.417843
-0.002321 -0.000665 0.016375
-0.283862 -0.090118 2.756629
-0.016642 -0.000417 0.493757
-0.025594 0.005656 0.652978
-1.167567 -0.218858 7.501136
-1.219372 -0.631564 17.195990
-0.243529 -0.119244 3.364058
-0.010667 0.005801 0.184776
-0.009097 0.001076 0.251324
-0.005885 -0.001774 0.234068
-0.044747 -0.016108 0.263741
-0.033651 0.007042 0.770677
-0.012651 -0.000350 0.418153
-0.052163 -0.016431 0.311465
-0.036602 -0.013182 0.220027
-0.141055 -0.049076 1.414158
0.009214 -0.006015 0.025078
-0.007811 -0.006026 0.177286
-0.045009 -0.016237 0.267379
-0.014215 -0.000624 0.439152
-0.036678 -0.013017 0.212384
-0.029752 0.005824 0.765198
0.005752 -0.005571 0.082174
-0.015698 -0.000237 0.482457
0.002798 0.001495 0.309787
-0.001879 0.003149 0.000410
-0.001226 -0.001305 0.077088
-5.120178 -2.720655 74.389816
-0.003430 -0.004119 0.237365
-0.035159 0.009470 0.797787
-0.014761 -0.000158 0.428491
0.006464 -0.006506 0.038382
0.000537 -0.004295 0.147870
-0.023503 0.002213 0.615414
-0.002697 -0.012751 0.223407
0.000251 -0.004418 0.165575
0.006697 -0.005225 0.010102
-0.197491 -0.038407 1.691662
-0.265383 -0.036512 1.921098
-0.196457 -0.029698 1.683012
-0.195208 -0.029565 1.676412
-0.074364 -0.012945 1.121669
-0.074495 -0.012923 1.121716
-0.001337 0.000517 0.039537
-0.574333 -0.064481 3.749909
-0.650157 -0.017531 4.057987
-0.005858 0.001483 0.162511
-0.570909 -0.064730 3.733550
-0.555466 -0.063342 3.665057
-0.003955 0.001111 0.112548
-0.004490 0.001181 0.125460
-0.028876 0.005978 0.831845
-0.030137 0.008175 0.830453
-0.020967 0.009288 0.830655
-0.656111 -0.020108 4.102751
-0.669876 -0.019444 4.172223
-0.576555 -0.065124 3.754108
-0.529670 -0.059851 3.550489
-0.683685 -0.014577 4.222238
-0.522020 -0.059124 3.508332
-0.029525 0.005950 0.835545
0.000253 0.021752 0.046733
-0.556498 -0.063879 3.677483
-0.028663 0.008225 0.824071
-0.525246 -0.059223 3.529442
-0.018394 0.007816 0.763489
-0.020326 0.011909 0.635183
-0.004183 0.000919 0.116911
-0.016539 0.007504 0.762855
-0.017165 0.005558 0.770535
-0.032109 0.010683 0.763031
-0.016311 0.009337 0.796954
-0.017489 0.009843 0.785432
-0.569704 -0.064943 3.709476
-0.030407 0.010053 0.726081
-0.512919 -0.057387 3.205592
-0.018355 0.007942 0.762749
-0.692308 -0.014902 4.266019
-0.767822 -0.061672 4.752599
-0.018756 0.007938 0.769187
-0.031878 0.010725 0.761601
-0.015894 0.008682 0.761646
-0.514681 -0.058986 3.542194
-0.521441 -0.045878 3.177837
-0.004130 0.000918 0.115069
-1.948105 0.002442 10.797632
-1.979077 0.010395 11.008607
-0.029584 0.006166 0.835455
-0.338545 -0.048421 2.245232
-0.025626 0.007426 0.823309
-0.018134 0.009270 0.808719
-0.533350 -0.058888 3.305832
-0.005077 0.001356 0.140270
-0.358556 -0.042648 2.357148
-0.018750 0.007937 0.766185
-0.545796 -0.062785 3.623621
-0.026358 0.010738 0.705052
-0.680979 -0.019887 4.219917
-1.869222 -0.122951 9.935608
-0.028364 0.008349 0.822139
-0.515571 -0.058867 3.486071
-0.739756 -0.062955 4.575648
0.004834 0.005293 0.679820
-1.895195 -0.069523 10.624531
-0.500172 -0.056683 3.418931
-0.024521 0.011062 0.687078
-0.000616 0.000596 0.026261
-1.770238 0.001208 9.842536
-0.022363 0.007883 0.816638
-1.819907 0.006127 10.129091
-2.034173 -0.078334 11.345222
-0.032320 0.009025 0.842957
-1.798607 0.008514 10.021463
-0.029316 0.008357 0.825652
-0.024881 0.005276 0.813200
-4.771702 -0.294308 26.786983
-0.030078 0.008844 0.861205
-0.508561 -0.057217 3.450052
-0.016576 0.008851 0.764471
-0.029474 0.005962 0.835728
-0.006937 0.001848 0.187116
-0.031181 0.006084 0.843443
-1.607915 -0.105536 8.649741
-0.029760 0.006470 0.836195
-0.059530 -0.007205 0.994858
-0.841425 -0.057915 5.137468
-0.026139 0.006284 0.818772
-1.926146 0.000594 10.644137
-1.858265 0.011237 10.432511
-0.789341 -0.026506 4.788209
-0.003059 0.001081 0.092076
-0.033137 0.007982 0.867722
-0.014954 0.005758 0.757288
-0.016988 0.007293 0.766517
-9.826618 -0.282582 52.480232
0.000275 0.000637 0.093302
-0.771353 -0.020591 4.707735
-0.012662 0.008982 0.058759
-0.001110 -0.004730 0.006226
-0.002425 -0.005058 0.013536
-0.000480 0.000620 0.024271
-0.001176 -0.006832 0.013782
-0.010589 0.001502 0.058364
-0.012491 -0.000690 0.067689
-0.005034 -0.005414 0.033855
-0.004334 -0.005265 0.029080
-0.005735 -0.000374 0.038033
-0.003677 -0.000103 0.023975
-0.004746 0.000399 0.030125
-0.004688 -0.005407 0.031607
-0.005817 -0.003810 0.032924
-0.010371 0.001482 0.056831
-0.007646 -0.005420 0.049335
-0.007624 -0.005658 0.049120
-0.005084 -0.001262 0.035230
-0.002975 -0.005150 0.021183
-0.010083 -0.001455 0.056133
-0.004514 0.000105 0.029524
-0.001233 -0.000286 0.006927
-0.004166 0.000315 0.022894
-0.010584 -0.000606 0.055688
-0.012822 -0.000449 0.071743
-0.006494 -0.002755 0.036761
-0.005250 -0.003599 0.029230
-0.010565 -0.000610 0.057851
-0.010548 -0.001528 0.058872
-0.026015 0.002430 0.140870
-0.008218 -0.000893 0.046202
-0.005440 -0.002923 0.030842
-0.008430 -0.002503 0.057360
-0.004100 -0.005301 0.032551
-0.040532 0.000406 0.218056
-0.015217 -0.009427 0.096214
-0.013031 -0.000408 0.073109
-0.011191 0.001471 0.064661
-0.028822 0.007039 0.148005
-0.025783 -0.008124 0.139584
-0.010555 -0.000544 0.059190
-0.011381 -0.009073 0.254113
-0.001921 -0.000888 0.014772
-0.010805 -0.000798 0.067713
-0.022383 -0.011469 0.137862
-0.003037 -0.007149 0.021875
-0.014045 -0.000543 0.085707
-0.011429 0.001313 0.066380
-0.018380 0.007095 0.094755
-0.005766 0.008397 0.023650
-0.010583 -0.000866 0.064072
-0.027354 0.005883 0.147772
-0.006016 0.010419 0.014160
-0.045875 -0.004326 0.387800
-0.049887 -0.001260 0.310773
-0.053528 0.000699 0.296542
-0.020288 0.007016 0.846587
-0.050389 -0.001003 0.309887
-0.020083 0.006961 0.848944
-0.052604 -0.000331 0.285332
-0.019009 0.007579 0.872478
-0.063532 -0.004317 0.357106
-0.049862 -0.002124 0.328534
-0.050265 -0.003087 0.326516
-0.053932 0.000155 0.292289
-0.039618 -0.008174 0.605715
-0.061257 -0.005518 0.328544
-0.061553 -0.007296 0.384723
-0.050674 -0.002754 0.337897
-0.051190 0.000477 0.284696
-0.063511 -0.004395 0.356381
-0.050111 -0.001280 0.311424
-0.052603 0.000766 0.293029
-0.018838 0.007299 0.907928
-0.050746 -0.002902 0.335912
-0.050183 -0.001060 0.306232
-0.050371 -0.001318 0.312421
-0.017811 0.007956 0.892078
-0.052808 0.000168 0.289070
-0.060814 -0.006822 0.371654
-0.051422 -0.001112 0.310108
-0.008687 0.003392 1.037451
-0.019012 0.007262 0.904483
-0.061680 -0.006804 0.380658
-0.148186 -0.014019 2.589622
-0.028787 0.004412 0.782223
-0.025823 0.006845 0.748541
-0.051827 0.000593 0.286848
-0.060147 -0.007490 0.372146
-0.063531 -0.004371 0.355498
-0.052437 -0.001259 0.327103
-0.060883 -0.006979 0.370564
-0.025876 0.006791 0.744504
-0.057693 0.015574 1.647364
-0.052037 0.000243 0.285112
-0.059581 -0.006285 0.369267
-0.063895 -0.005020 0.357413
-0.040083 0.010619 1.376814
0.007273 0.003118 1.197527
-0.038675 0.010229 1.339840
-0.032488 0.011703 1.291862
-0.048787 -0.001777 0.329006
-0.041068 0.010394 1.368390
-0.051465 -0.001744 0.318163
-0.057210 -0.008454 0.376352
-0.062653 0.017206 1.752632
-0.034289 0.010129 1.284179
-0.060529 -0.009165 0.403656
-0.024891 0.008777 1.109789
-0.051717 -0.008542 0.445841
-0.044319 0.010886 1.434560
-0.058546 -0.008902 0.384436
-0.018013 0.007908 0.889000
-0.020287 0.006963 0.844512
-0.043591 0.010540 1.402439
0.011800 0.001837 0.702093
-0.020639 0.007975 0.836430
-0.052039 -0.001756 0.320329
-0.058335 -0.007028 0.364067
-0.029255 0.009848 1.218339
-0.024967 0.014848 1.312516
-0.067447 0.016363 1.824623
-0.056592 -0.008006 0.382604
-0.049976 -0.001320 0.309950
-0.061646 -0.005863 0.341697
-0.061709 -0.007018 0.379707
-0.057745 0.013291 1.590998
-0.049681 0.012440 1.453260
-0.052297 -0.001837 0.318188
-0.061981 -0.007456 0.387217
-0.057418 -0.008037 0.377303
-0.052378 0.000120 0.289673
0.018889 0.000016 0.628851
-0.029846 0.009569 1.219288
-0.042584 0.010550 1.389302
-0.047486 -0.001900 0.332665
-0.061678 0.013685 1.709672
-0.057686 0.015686 1.682418
-0.055117 0.011798 1.540774
-0.019494 0.006630 0.903107
-0.062239 -0.005798 0.338896
-0.070162 0.016826 1.870916
-0.028280 0.009685 1.199929
-0.027091 0.006213 0.742968
-0.067620 0.016640 1.786019
-0.047714 0.013955 1.488313
-0.061513 0.015948 1.739600
-0.002802 0.001311 1.120935
-0.027162 0.009807 1.187525
-0.048959 0.002643 0.273423
-0.044003 0.006676 1.392096
-0.050821 0.014321 1.534109
-0.029413 0.004650 0.790524
-0.061275 -0.006640 0.384095
-0.026518 0.005997 0.813285
-0.052729 -0.001317 0.315698
-0.018873 0.007425 0.913436
-0.037620 0.013253 1.340128
-0.018479 0.007562 0.915706
-0.062705 -0.005653 0.336823
-0.049443 0.014436 1.527248
-0.027407 0.009883 1.190305
-0.059380 -0.007296 0.364267
-0.048090 -0.003030 0.340054
0.000634 -0.000176 0.815502
-0.035361 0.011379 1.291869
0.001779 -0.000335 0.799838
-0.012212 -0.000914 0.952551
-0.022018 0.009997 1.112986
-0.005447 0.003881 1.049661
-0.051398 -0.000111 0.282059
-0.005653 0.003840 1.053129
0.001410 -0.000473 0.803977
-0.018586 0.006731 0.580906
-0.008994 0.003981 0.415521
0.006757 0.000539 0.214779
0.005528 0.000602 0.214581
-0.026882 0.007657 0.750324
0.004634 0.000216 0.144811
-0.031092 0.010178 1.028563
-0.030055 0.008775 0.832779
-0.024102 0.007139 0.701265
0.004016 0.000793 0.151841
-0.016563 0.003104 0.540951
-0.029800 0.006800 0.802065
-0.010390 0.002615 0.432797
-0.019629 0.006192 0.674080
-0.011209 0.003113 0.444946
-0.019352 0.009366 0.615187
-0.003287 0.009450 0.020118
0.004060 0.000887 0.152457
-0.026675 0.007743 0.758494
-0.010693 0.005781 0.545709
0.006712 0.000532 0.214519
-0.012987 0.002660 0.455250
-0.025102 0.007044 0.721446
-0.031998 0.007481 0.838502
-0.030815 0.006806 0.838422
-0.029714 0.007565 0.803407
-0.008682 0.002039 0.390273
-0.023846 0.006883 0.690989
-0.020578 0.004921 0.609254
-0.026928 0.005414 0.729753
-0.029805 0.008290 0.824846
-0.023420 0.006371 0.673265
-0.027072 0.006802 0.759221
-0.017928 0.003575 0.570243
-0.008425 0.005359 0.410722
-0.021755 0.007834 0.659757
-0.012099 0.000486 0.078135
-0.012949 0.005655 0.581422
-0.011325 0.002654 0.447676
-0.018135 0.003903 0.599455
-0.026601 0.007269 0.802952
-0.018875 0.004348 0.600735
-0.029292 0.007696 0.813060
-0.031468 0.008842 0.866351
-0.015773 0.003535 0.552092
-0.029208 0.007740 0.805400
-0.017701 0.001907 0.589294
-0.022563 0.006854 0.692182
-0.009361 0.004019 0.422381
-0.009013 0.002639 0.378303
-0.033897 0.007798 0.909680
-0.010474 0.006482 0.459211
0.003103 -0.000857 0.189126
-0.008405 0.002918 0.367143
-0.028809 0.007989 0.807204
0.001141 0.001471 0.199957
-0.025770 0.007361 0.716181
-0.028546 0.007566 0.772479
-0.014445 0.002360 0.476667
-0.030992 0.006932 0.807604
0.001177 0.000884 0.237361
-0.006377 0.002125 0.281669
-0.010346 0.003632 0.472997
-0.013384 0.005515 0.586672
-0.026601 0.010327 1.043130
-0.032890 0.009607 0.932172
-0.091295 -0.006493 0.642414
-0.025238 0.009696 1.052145
-0.047242 0.010317 0.297945
-0.034518 0.009151 0.928591
-0.023583 0.010573 1.080115
-0.031881 0.010214 0.920614
-0.099062 -0.008834 0.653291
-0.067736 0.002284 0.445680
-0.025246 0.009687 1.052644
-0.063197 0.014662 0.368586
-0.044037 0.005483 0.385021
-0.034312 0.010066 0.917306
-0.070709 -0.004140 0.470448
-0.022150 0.010215 1.107087
-0.024244 0.011208 1.081852
-0.030599 0.008941 0.987864
-0.028020 0.010185 1.022335
-0.010566 0.005996 1.085402
-0.070756 0.006916 0.397747
-0.031449 0.010348 0.933990
-0.036246 0.008948 0.966709
-0.031448 0.010347 0.933958
-0.030565 0.008865 0.987796
-0.024907 0.009502 1.055165
-0.024119 0.009894 1.064607
-0.029042 0.008995 1.007974
-0.070429 0.003919 0.432147
-0.030185 0.008881 1.003912
-0.022725 0.011129 1.085716
-0.031304 0.009105 0.861035
-0.098425 -0.008611 0.658400
-0.069300 0.004474 0.423076
-0.085278 -0.009612 0.727012
-0.033390 0.009888 0.944346
-0.025261 0.009614 1.057396
-0.074557 0.001897 0.463757
-0.035922 0.003123 0.190149
-0.039403 0.001837 0.209033
-0.068006 0.007664 0.381974
-0.034604 0.008944 0.935525
-0.026578 0.009932 1.115185
-0.065960 -0.005499 0.399447
-0.074719 0.002108 0.461897
-0.072313 0.005452 0.379619
-0.022777 0.010253 1.061218
-0.028988 0.009001 1.008684
-0.068163 -0.003687 0.371785
-0.024977 0.009564 1.062765
-0.025021 0.009554 1.175004
-0.077625 0.003656 0.429090
-0.035792 0.004510 0.189673
-0.022462 0.010213 1.102539
-0.070581 -0.003944 0.470287
-0.059304 -0.007134 0.398867
-0.033624 0.010565 0.933215
-0.029138 0.008726 1.020325
-0.068533 0.007991 0.377418
-0.046333 0.008855 0.288947
-0.021843 0.010260 1.113238
-0.083691 0.001517 0.504801
-0.031323 0.009365 0.862246
-0.031754 0.010568 0.941543
-0.038840 0.002097 0.206267
-0.035130 0.003389 0.186396
-0.067693 -0.002576 0.367201
-0.024985 0.009591 1.063047
-0.030353 0.009496 0.926015
-0.103928 -0.006909 0.643127
-0.023538 0.011500 1.093516
-0.025517 0.010699 1.018463
6.228531 -3.600837 283.770416
-0.103342 -0.007089 0.646492
-0.066270 -0.005421 0.401970
-0.023782 0.011886 1.094635
-0.033379 0.009066 0.934032
-0.030659 0.008899 0.986772
-0.066173 0.005689 0.410124
-0.067095 -0.003818 0.374461
-0.068658 0.001151 0.445331
-0.025521 0.009089 1.122583
0.004712 -0.008498 1.710709
-0.064859 -0.005470 0.402924
-0.073225 -0.001337 0.407863
-0.067175 -0.002434 0.364432
-0.032953 0.010262 0.904229
-0.067931 0.007975 0.382327
-0.033338 0.009212 0.945429
0.004994 -0.012642 1.878082
-0.031708 0.009844 0.988613
-0.032036 0.010720 0.937577
-0.027189 0.012426 1.247118
-0.031558 0.010514 0.924455
-0.034576 0.002424 0.240923
-0.023115 0.009610 1.063657
-0.028524 0.010700 1.013787
-0.029212 0.010074 1.005099
-0.027937 0.008690 1.102266
-0.063206 -0.005423 0.398150
-0.030438 0.008411 0.929578
-0.067611 -0.001717 0.364393
-0.034887 0.007804 0.909109
-0.034718 0.008380 0.917006
-0.067487 -0.003064 0.378104
-0.061912 -0.007100 0.423861
-0.042041 0.008138 0.290947
-0.067642 -0.001657 0.364623
-0.068188 -0.002577 0.374580
-0.007470 0.007575 1.328429
-0.024277 0.009496 1.072175
-0.042824 0.007953 0.295120
-0.067455 -0.002477 0.366952
-0.068257 0.004493 0.428461
-0.066912 -0.002044 0.366258
-0.067554 -0.002494 0.367492
-0.108884 -0.003400 0.611528
-0.035327 0.009341 0.927869
-0.028690 0.010630 1.011370
-0.005672 0.003588 1.312294
-0.066802 -0.002104 0.373377
-0.066335 -0.002403 0.363891
0.000029 0.008200 1.412887
-0.033747 -0.008179 0.214117
-0.040122 -0.015099 0.289409
-0.033905 -0.006305 0.229519
-0.011918 0.004892 0.472865
-0.029651 -0.003821 0.158292
-0.001810 -0.000252 0.011882
-0.003518 0.002677 0.365215
0.000422 0.000898 0.036543
-0.076066 0.015673 2.221718
-0.055887 0.028601 2.089306
-0.078024 0.014561 2.158519
-0.012122 0.004929 0.476737
-0.033721 -0.006350 0.209816
-0.041726 -0.013573 0.650823
-0.029580 -0.004059 0.156322
-0.039219 -0.013738 0.283653
-0.054405 0.029168 2.110423
-0.034936 -0.005634 0.215489
-0.038576 -0.014123 0.262179
-0.033682 -0.008206 0.211714
-0.009367 0.004383 0.409073
-0.034183 -0.005552 0.209300
-0.064875 -0.011629 1.103723
-0.002766 -0.000477 0.017272
-0.015050 0.003893 0.769724
-0.021154 0.002960 0.793940
-0.033558 -0.006273 0.210285
-0.004964 0.002178 0.211663
-0.017849 0.003078 0.769463
-0.039686 -0.014209 0.266092
-0.000091 0.000116 0.000476
-0.054879 0.028746 2.089736
-0.029735 -0.006414 0.161199
-0.126572 0.031172 3.905292
-0.004983 0.003095 0.481821
-0.057250 0.017397 1.582265
-0.053186 0.021886 1.842653
-0.022073 0.004252 0.603894
-0.010363 0.004612 0.453281
-0.029735 -0.006117 0.254884
-0.050771 -0.021292 0.393848
-0.000775 0.000007 0.004108
-0.061381 0.018652 1.732218
-0.030915 0.003460 0.873926
-0.027852 -0.003458 0.155803
-0.193300 0.070073 8.452504
-0.024257 0.002890 0.818272
-0.087323 0.018504 2.568884
-0.039188 -0.013295 0.259296
0.015540 -0.002259 0.525662
-0.028064 -0.003647 0.171294
-0.023158 0.004480 0.627789
-0.060212 0.017246 1.676442
-0.028648 0.004694 0.763600
-0.012617 0.005673 0.588548
0.012780 -0.002764 0.545037
-0.059307 0.025147 1.894091
0.003450 0.003233 0.226388
-0.025677 0.002803 0.826786
-0.015128 0.004109 0.520906
-0.016483 0.003240 0.763503
-0.018337 0.004115 0.774102
-0.060352 0.024747 2.157085
-0.002533 0.001492 0.099001
-0.006747 0.001957 0.189446
-0.029431 -0.003698 0.164674
-0.030237 0.003807 0.866920
-11.289060 -0.963096 75.764557
-0.030430 -0.004773 0.190380
-0.011086 0.002653 0.360900
-0.078696 0.011243 2.102015
-0.023691 -0.003625 0.162351
-0.135369 0.042778 4.894203
-0.024412 0.005163 0.696938
-0.028861 -0.003718 0.158731
-0.001221 0.000867 0.049421
-0.038903 -0.013628 0.286812
-0.055926 0.023213 1.979343
-0.027026 -0.003608 0.149137
-0.021489 0.004584 0.814971
-0.027835 -0.003850 0.156168
-0.039777 -0.014014 0.228617
-0.060381 0.018334 1.718526
-0.037704 -0.012787 0.249261
-0.056839 0.028408 2.155083
-0.084820 0.016503 2.343660
-0.020511 0.004521 0.822722
-0.039465 -0.013350 0.264812
-0.032564 -0.008814 0.205313
-0.033136 -0.009565 0.233915
-0.022342 -0.002248 0.125235
-0.021905 0.004342 0.596429
-0.004350 0.001047 0.126040
-0.035083 -0.005830 0.214796
-0.023843 0.005007 0.840805
-0.060082 0.027412 2.091331
-0.032417 -0.005401 0.176643
-0.032740 -0.006953 0.186255
-0.723619 -0.092970 5.127035
-0.023170 -0.004168 0.143507
-0.013583 0.003250 0.388497
-0.018972 0.004324 0.544535
-0.200773 0.068981 7.388916
-0.033218 0.004043 0.892326
-0.092077 0.018521 2.632531
-0.023287 -0.002387 0.130195
-0.074616 -0.026785 1.195249
-0.026687 -0.021112 0.151619
-0.029699 -0.010934 0.157139
-0.031615 -0.008562 0.198612
-0.029814 -0.019660 0.139217
-0.221386 -0.065598 1.543652
-0.004374 0.001236 0.026346
-0.004526 0.004496 0.022243
-0.033549 -0.021241 0.226542
-0.026232 -0.001867 0.160067
-0.034124 -0.020957 0.223482
-0.033609 -0.017515 0.172380
-0.033390 -0.011852 0.179012
-0.000970 0.000007 0.005397
0.003223 -0.008573 0.181326
-0.027239 -0.009915 0.165800
-0.006590 -0.004985 0.042847
-0.040467 0.002408 0.244799
-0.034100 -0.021015 0.228448
-0.002960 0.002337 0.015675
-0.000855 -0.007433 0.009522
-0.027271 -0.011722 0.144678
-0.025755 -0.017631 0.120539
-0.000948 -0.005802 0.007374
-0.023212 -0.022541 0.120368
-0.004092 0.001434 0.023919
-0.003357 0.006287 0.012025
-0.001109 -0.005730 0.008333
-0.031249 -0.018413 0.156212
-0.040845 -0.023534 0.269349
-0.000300 -0.007028 0.002378
-0.033457 -0.021173 0.223423
-0.002620 0.000740 0.073206
-0.004991 -0.003834 0.032747
-0.000342 -0.007048 0.002664
-0.023999 -0.020324 0.104506
-0.035814 -0.025384 0.236513
-0.000338 -0.005644 0.000419
-0.002006 0.001476 0.066141
-0.001444 0.002866 0.004657
-0.032605 -0.022771 0.186319
-0.029991 -0.016983 0.150747
-0.041451 -0.023825 0.277077
-0.001616 -0.005441 0.011141
-0.041243 -0.022342 0.284807
-0.005945 0.004397 0.031089
-0.025704 -0.018044 0.122243
-0.029301 -0.019581 0.137060
-0.004269 0.001248 0.124471
-0.024058 -0.002405 0.130089
-0.005375 0.005288 0.026115
-0.022457 -0.021997 0.092106
-0.041707 -0.023902 0.278820
-0.029427 -0.023057 0.159901
-0.003703 0.002619 0.018562
-0.031888 -0.023060 0.178165
-0.000324 -0.010800 0.200194
-0.029261 -0.020962 0.167564
-0.030492 -0.018135 0.144232
-0.024846 -0.021848 0.107709
-0.058069 -0.005559 0.430216
-0.064995 -0.003273 0.656918
-0.053934 -0.006726 0.457694
-0.047392 -0.002840 0.350925
-0.067308 -0.005544 0.598778
-0.056061 -0.001123 0.383398
-0.065105 -0.006970 0.570044
-0.081138 -0.005606 0.873872
-0.068727 0.002717 0.632602
-0.077675 -0.004273 0.810124
-0.073510 -0.004401 0.758443
-0.046515 -0.002708 0.343856
-0.061910 -0.001456 0.471041
-0.055515 -0.004869 0.413229
-0.033657 0.005472 0.403868
-0.072708 -0.003934 0.722612
-0.058903 -0.007710 0.505276
-0.051799 -0.002718 0.422921
-0.061676 -0.005124 0.469825
-0.083836 -0.005078 0.891958
-0.060695 0.004159 0.553545
-0.036978 -0.001600 0.332187
-0.215901 -0.067138 3.515510
-0.074331 -0.004396 0.747493
-0.040684 0.005318 0.343628
-0.067317 0.003329 0.624065
-0.074391 0.005718 0.683432
-0.058385 0.003420 0.532789
-0.062509 0.005814 0.574497
-0.076731 -0.004435 0.810258
-0.039145 0.003831 0.317976
-0.061780 -0.006905 0.545159
-0.060003 -0.003554 0.454470
-0.074884 -0.003181 0.757395
-0.063728 0.003576 0.587239
-0.055149 -0.005172 0.408731
-0.080559 -0.003446 0.804817
-0.075369 -0.003327 0.755248
-0.058575 0.003475 0.537402
0.002999 0.002012 0.093293
-0.085605 -0.013522 0.967535
-0.678969 -0.185108 11.328528
-0.000666 -0.001638 0.008457
-0.056529 0.004294 0.516663
-0.080571 -0.003637 0.861244
-0.074935 0.004853 0.681560
-0.063172 0.005313 0.573170
-0.068717 -0.001503 0.668123
-0.003605 0.002456 0.103700
-0.181520 -0.005627 1.836987
-0.064268 -0.007141 0.565919
-0.065152 0.005536 0.598899
-0.085512 -0.006220 0.955184
-0.073921 0.000164 0.731763
-0.067128 -0.003312 0.680044
-0.063846 0.001414 0.690048
-0.075426 0.004472 0.696577
-0.063994 0.003376 0.586815
-0.065128 0.003483 0.588171
-0.062259 0.001765 0.581041
0.002483 0.002726 0.118630
-0.081744 -0.005337 0.887660
0.002827 0.003037 0.154970
-0.075134 -0.002485 0.742221
-0.042080 0.005106 0.391813
-0.088136 -0.014275 1.005781
-0.079410 -0.000185 0.775838
-0.078687 -0.000644 0.774062
-0.122809 -0.018950 1.915803
-0.513105 -0.124616 8.530723
-0.055654 -0.000953 0.525566
-0.069382 0.001332 0.647910
-0.061881 -0.007170 0.470626
-0.026951 -0.000822 0.202673
-0.058046 -0.003016 0.609246
-0.065544 -0.006250 0.585130
-0.036908 -0.001042 0.334258
-0.078552 -0.000670 0.769636
-0.057624 0.004415 0.528281
-0.064957 0.001272 0.609993
-0.076573 -0.002945 0.769118
-0.054086 0.002327 0.487986
-0.023543 0.002643 0.314191
-0.023395 0.000507 0.199191
-0.074451 0.002161 0.700511
-0.062626 0.005824 0.581185
-0.085433 -0.006073 0.950541
0.002491 0.000103 0.105250
-0.071529 0.002284 0.683277
-0.019857 -0.004112 0.206970
-0.011198 0.000708 0.062424
-0.061141 0.013066 2.115776
-0.012942 -0.004905 0.213622
-0.069035 0.008171 0.645221
-0.113986 0.017674 1.075168
-0.114086 0.017930 1.078952
-0.112608 -0.006469 0.947482
-0.036062 -0.000913 0.386478
-0.112434 0.010055 1.045453
0.000342 -0.005534 0.116487
-0.009329 -0.004803 0.124157
-0.039832 -0.000915 0.425275
-0.108923 0.006117 1.191369
-0.023894 -0.006801 0.240431
-0.114404 -0.000461 0.901781
-0.112471 0.008720 1.098323
-0.041474 -0.000857 0.436034
-0.049205 0.000872 0.486558
-0.110026 0.005222 1.041989
-0.114498 0.017480 1.064729
-0.012905 -0.000784 0.075092
-0.113156 -0.000367 0.896768
-0.114475 -0.000535 0.901191
-0.016367 -0.005716 0.165163
-0.110418 0.005146 1.039324
-0.112430 0.010049 1.045818
0.480950 1.164424 30.364624
-0.114119 0.017008 1.074189
-0.108988 0.006629 1.089617
-0.116065 0.018085 1.107520
-0.111169 0.009998 1.073025
-0.108433 0.006794 1.097264
-0.108621 0.006452 1.086607
-0.111387 -0.010215 0.790287
0.236259 0.513631 13.693566
1.546605 3.537764 94.163734
-0.029440 -0.004794 0.294380
-0.021686 0.000036 0.136681
-0.108516 0.006704 1.089039
-0.109904 0.005789 1.052154
-0.114080 0.016861 1.074482
-0.111381 0.011478 1.067101
-0.110006 0.007317 1.063546
-0.038201 -0.002109 0.388283
0.003367 -0.002109 0.139798
-0.113449 0.017863 1.073996
-0.115039 0.010240 1.134875
0.814211 1.838927 49.724457
0.001937 -0.003482 0.117530
0.182456 0.154863 5.527494
-0.289464 0.036549 2.720865
-0.110719 0.010234 1.077856
-0.095959 0.004614 1.352496
-0.114032 0.019775 1.080455
-0.065644 0.007854 0.615758
-0.111090 0.010957 1.069740
-0.018402 -0.000685 0.123865
-0.108420 0.005319 1.037684
-0.044877 0.000916 0.446257
-0.110903 0.009458 1.064834
-0.109476 0.005825 1.061616
-0.050450 0.001032 0.496096
-0.036428 -0.001618 0.406653
-0.072716 0.008588 0.685192
1.048667 2.407350 63.067715
0.002692 -0.003105 0.086376
-0.057491 0.020059 2.238302
0.002419 -0.002525 0.108873
0.001637 -0.003816 0.108442
